2547.668017 -3330.546158 -801.455820
2547.135558 -3331.591091 -799.835758
2546.603099 -3332.636024 -798.215696
2546.070639 -3333.680957 -796.595633
2545.538180 -3334.725890 -794.975571
2595.442211 -3243.000000 -916.500000
2595.442211 -3243.000000 -916.500000
2594.355810 -3244.574518 -915.916368
2593.269408 -3246.149035 -915.332736
2592.183007 -3247.723553 -914.749104
2591.096606 -3249.298070 -914.165472
2590.010204 -3250.872588 -913.581840
2588.923803 -3252.447106 -912.998208
2587.837401 -3254.021623 -912.414576
2586.751000 -3255.596141 -911.830944
2585.664598 -3257.170658 -911.247312
2584.578197 -3258.745176 -910.663680
2848.030213 -3170.500000 -920.000000
2848.030213 -3170.500000 -920.000000
2846.108005 -3171.051729 -919.973365
2844.185796 -3171.603458 -919.946730
2842.263588 -3172.155187 -919.920094
2840.341379 -3172.706916 -919.893459
2838.419171 -3173.258645 -919.866824
2836.496962 -3173.810374 -919.840189
2834.574754 -3174.362103 -919.813554
2832.652545 -3174.913832 -919.786918
2830.730336 -3175.465561 -919.760283
2828.808128 -3176.017290 -919.733648
2826.885919 -3176.569019 -919.707013
2824.963711 -3177.120748 -919.680378
2823.041502 -3177.672477 -919.653743
2821.119294 -3178.224206 -919.627107
2819.197085 -3178.775935 -919.600472
2817.274877 -3179.327664 -919.573837
2815.352668 -3179.879393 -919.547202
2813.430460 -3180.431122 -919.520567
2811.508251 -3180.982851 -919.493931
2809.586042 -3181.534580 -919.467296
2807.663834 -3182.086308 -919.440661
2805.741625 -3182.638037 -919.414026
2803.819417 -3183.189766 -919.387391
2801.897208 -3183.741495 -919.360755
2799.975000 -3184.293224 -919.334120
2798.052791 -3184.844953 -919.307485
2796.130583 -3185.396682 -919.280850
2794.208374 -3185.948411 -919.254215
2792.286166 -3186.500140 -919.227579
2790.363957 -3187.051869 -919.200944
2788.441748 -3187.603598 -919.174309
2786.519540 -3188.155327 -919.147674
2784.597331 -3188.707056 -919.121039
2782.675123 -3189.258785 -919.094403
2780.752914 -3189.810514 -919.067768
2778.830706 -3190.362243 -919.041133
2776.908497 -3190.913972 -919.014498
2774.986289 -3191.465701 -918.987863
2773.064080 -3192.017430 -918.961228
2771.141871 -3192.569159 -918.934592
2769.219663 -3193.120888 -918.907957
2767.297454 -3193.672617 -918.881322
2765.375246 -3194.224346 -918.854687
2763.453037 -3194.776075 -918.828052
2761.530829 -3195.327804 -918.801416
2759.608620 -3195.879533 -918.774781
2757.686412 -3196.431262 -918.748146
2755.764203 -3196.982991 -918.721511
2753.841995 -3197.534720 -918.694876
2751.919786 -3198.086449 -918.668240
2749.997577 -3198.638178 -918.641605
2748.075369 -3199.189907 -918.614970
2746.153160 -3199.741636 -918.588335
2744.230952 -3200.293365 -918.561700
2742.308743 -3200.845094 -918.535064
2740.386535 -3201.396823 -918.508429
2738.464326 -3201.948552 -918.481794
2736.542118 -3202.500281 -918.455159
2734.619909 -3203.052010 -918.428524
2732.697701 -3203.603739 -918.401888
2730.775492 -3204.155468 -918.375253
2728.853283 -3204.707197 -918.348618
2726.931075 -3205.258925 -918.321983
2725.008866 -3205.810654 -918.295348
2723.086658 -3206.362383 -918.268713
2721.164449 -3206.914112 -918.242077
2719.242241 -3207.465841 -918.215442
2717.320032 -3208.017570 -918.188807
2715.397824 -3208.569299 -918.162172
2713.475615 -3209.121028 -918.135537
2711.553406 -3209.672757 -918.108901
2709.631198 -3210.224486 -918.082266
2707.708989 -3210.776215 -918.055631
2705.786781 -3211.327944 -918.028996
2703.864572 -3211.879673 -918.002361
2701.942364 -3212.431402 -917.975725
2700.020155 -3212.983131 -917.949090
2698.097947 -3213.534860 -917.922455
2696.175738 -3214.086589 -917.895820
2694.253530 -3214.638318 -917.869185
2692.331321 -3215.190047 -917.842549
2690.409112 -3215.741776 -917.815914
2688.486904 -3216.293505 -917.789279
2686.564695 -3216.845234 -917.762644
2684.642487 -3217.396963 -917.736009
2682.720278 -3217.948692 -917.709373
2680.798070 -3218.500421 -917.682738
2678.875861 -3219.052150 -917.656103
2676.953653 -3219.603879 -917.629468
2675.031444 -3220.155608 -917.602833
2673.109236 -3220.707337 -917.576198
2671.187027 -3221.259066 -917.549562
2669.264818 -3221.810795 -917.522927
2667.342610 -3222.362524 -917.496292
2665.420401 -3222.914253 -917.469657
2663.498193 -3223.465982 -917.443022
2661.575984 -3224.017711 -917.416386
2659.653776 -3224.569440 -917.389751
2657.731567 -3225.121169 -917.363116
2655.809359 -3225.672898 -917.336481
2653.887150 -3226.224627 -917.309846
2651.964941 -3226.776356 -917.283210
2650.042733 -3227.328085 -917.256575
2648.120524 -3227.879813 -917.229940
2646.198316 -3228.431542 -917.203305
2644.276107 -3228.983271 -917.176670
2642.353899 -3229.535000 -917.150034
2640.431690 -3230.086729 -917.123399
2638.509482 -3230.638458 -917.096764
2636.587273 -3231.190187 -917.070129
2634.665065 -3231.741916 -917.043494
2632.742856 -3232.293645 -917.016859
2630.820647 -3232.845374 -916.990223
2628.898439 -3233.397103 -916.963588
2626.976230 -3233.948832 -916.936953
2625.054022 -3234.500561 -916.910318
2623.131813 -3235.052290 -916.883683
2621.209605 -3235.604019 -916.857047
2619.287396 -3236.155748 -916.830412
2617.365188 -3236.707477 -916.803777
2615.442979 -3237.259206 -916.777142
2613.520771 -3237.810935 -916.750507
2611.598562 -3238.362664 -916.723871
2609.676353 -3238.914393 -916.697236
2607.754145 -3239.466122 -916.670601
2605.831936 -3240.017851 -916.643966
2603.909728 -3240.569580 -916.617331
2601.987519 -3241.121309 -916.590695
2600.065311 -3241.673038 -916.564060
2598.143102 -3242.224767 -916.537425
2674.500000 -3243.000000 -927.000000
2674.500000 -3243.000000 -927.000000
2676.344137 -3242.229529 -926.925610
2678.188274 -3241.459059 -926.851219
2680.032411 -3240.688588 -926.776829
2681.876548 -3239.918118 -926.702439
2683.720685 -3239.147647 -926.628049
2685.564822 -3238.377176 -926.553658
2687.408959 -3237.606706 -926.479268
2689.253096 -3236.836235 -926.404878
2691.097233 -3236.065765 -926.330488
2692.941370 -3235.295294 -926.256097
2694.785507 -3234.524823 -926.181707
2696.629644 -3233.754353 -926.107317
2698.473780 -3232.983882 -926.032927
2700.317917 -3232.213411 -925.958536
2702.162054 -3231.442941 -925.884146
2704.006191 -3230.672470 -925.809756
2705.850328 -3229.902000 -925.735365
2707.694465 -3229.131529 -925.660975
2709.538602 -3228.361058 -925.586585
2711.382739 -3227.590588 -925.512195
2713.226876 -3226.820117 -925.437804
2715.071013 -3226.049647 -925.363414
2716.915150 -3225.279176 -925.289024
2718.759287 -3224.508705 -925.214634
2720.603424 -3223.738235 -925.140243
2722.447561 -3222.967764 -925.065853
2724.291698 -3222.197294 -924.991463
2726.135835 -3221.426823 -924.917073
2727.979972 -3220.656352 -924.842682
2729.824109 -3219.885882 -924.768292
2731.668246 -3219.115411 -924.693902
2733.512383 -3218.344940 -924.619511
2735.356520 -3217.574470 -924.545121
2737.200657 -3216.803999 -924.470731
2739.044794 -3216.033529 -924.396341
2740.888931 -3215.263058 -924.321950
2742.733068 -3214.492587 -924.247560
2744.577204 -3213.722117 -924.173170
2746.421341 -3212.951646 -924.098780
2748.265478 -3212.181176 -924.024389
2750.109615 -3211.410705 -923.949999
2751.953752 -3210.640234 -923.875609
2753.797889 -3209.869764 -923.801219
2755.642026 -3209.099293 -923.726828
2757.486163 -3208.328823 -923.652438
2759.330300 -3207.558352 -923.578048
2761.174437 -3206.787881 -923.503658
2763.018574 -3206.017411 -923.429267
2764.862711 -3205.246940 -923.354877
2766.706848 -3204.476469 -923.280487
2768.550985 -3203.705999 -923.206096
2770.395122 -3202.935528 -923.131706
2772.239259 -3202.165058 -923.057316
2774.083396 -3201.394587 -922.982926
2775.927533 -3200.624116 -922.908535
2777.771670 -3199.853646 -922.834145
2779.615807 -3199.083175 -922.759755
2781.459944 -3198.312705 -922.685365
2783.304081 -3197.542234 -922.610974
2785.148218 -3196.771763 -922.536584
2786.992355 -3196.001293 -922.462194
2788.836491 -3195.230822 -922.387804
2790.680628 -3194.460352 -922.313413
2792.524765 -3193.689881 -922.239023
2794.368902 -3192.919410 -922.164633
2796.213039 -3192.148940 -922.090242
2798.057176 -3191.378469 -922.015852
2799.901313 -3190.607998 -921.941462
2801.745450 -3189.837528 -921.867072
2803.589587 -3189.067057 -921.792681
2805.433724 -3188.296587 -921.718291
2807.277861 -3187.526116 -921.643901
2809.121998 -3186.755645 -921.569511
2810.966135 -3185.985175 -921.495120
2812.810272 -3185.214704 -921.420730
2814.654409 -3184.444234 -921.346340
2816.498546 -3183.673763 -921.271950
2818.342683 -3182.903292 -921.197559
2820.186820 -3182.132822 -921.123169
2822.030957 -3181.362351 -921.048779
2823.875094 -3180.591881 -920.974388
2825.719231 -3179.821410 -920.899998
2827.563368 -3179.050939 -920.825608
2829.407505 -3178.280469 -920.751218
2831.251642 -3177.509998 -920.676827
2833.095779 -3176.739527 -920.602437
2834.939915 -3175.969057 -920.528047
2836.784052 -3175.198586 -920.453657
2838.628189 -3174.428116 -920.379266
2840.472326 -3173.657645 -920.304876
2842.316463 -3172.887174 -920.230486
2844.160600 -3172.116704 -920.156096
2846.004737 -3171.346233 -920.081705
2674.500000 -3243.000000 -1523.000000
2674.500000 -3243.000000 -1523.000000
2674.500000 -3243.000000 -1521.000000
2674.500000 -3243.000000 -1519.000000
2674.500000 -3243.000000 -1517.000000
2674.500000 -3243.000000 -1515.000000
2674.500000 -3243.000000 -1513.000000
2674.500000 -3243.000000 -1511.000000
2674.500000 -3243.000000 -1509.000000
2674.500000 -3243.000000 -1507.000000
2674.500000 -3243.000000 -1505.000000
2674.500000 -3243.000000 -1503.000000
2674.500000 -3243.000000 -1501.000000
2674.500000 -3243.000000 -1499.000000
2674.500000 -3243.000000 -1497.000000
2674.500000 -3243.000000 -1495.000000
2674.500000 -3243.000000 -1493.000000
2674.500000 -3243.000000 -1491.000000
2674.500000 -3243.000000 -1489.000000
2674.500000 -3243.000000 -1487.000000
2674.500000 -3243.000000 -1485.000000
2674.500000 -3243.000000 -1483.000000
2674.500000 -3243.000000 -1481.000000
2674.500000 -3243.000000 -1479.000000
2674.500000 -3243.000000 -1477.000000
2674.500000 -3243.000000 -1475.000000
2674.500000 -3243.000000 -1473.000000
2674.500000 -3243.000000 -1471.000000
2674.500000 -3243.000000 -1469.000000
2674.500000 -3243.000000 -1467.000000
2674.500000 -3243.000000 -1465.000000
2674.500000 -3243.000000 -1463.000000
2674.500000 -3243.000000 -1461.000000
2674.500000 -3243.000000 -1459.000000
2674.500000 -3243.000000 -1457.000000
2674.500000 -3243.000000 -1455.000000
2674.500000 -3243.000000 -1453.000000
2674.500000 -3243.000000 -1451.000000
2674.500000 -3243.000000 -1449.000000
2674.500000 -3243.000000 -1447.000000
2674.500000 -3243.000000 -1445.000000
2674.500000 -3243.000000 -1443.000000
2674.500000 -3243.000000 -1441.000000
2674.500000 -3243.000000 -1439.000000
2674.500000 -3243.000000 -1437.000000
2674.500000 -3243.000000 -1435.000000
2674.500000 -3243.000000 -1433.000000
2674.500000 -3243.000000 -1431.000000
2674.500000 -3243.000000 -1429.000000
2674.500000 -3243.000000 -1427.000000
2674.500000 -3243.000000 -1425.000000
2674.500000 -3243.000000 -1423.000000
2674.500000 -3243.000000 -1421.000000
2674.500000 -3243.000000 -1419.000000
2674.500000 -3243.000000 -1417.000000
2674.500000 -3243.000000 -1415.000000
2674.500000 -3243.000000 -1413.000000
2674.500000 -3243.000000 -1411.000000
2674.500000 -3243.000000 -1409.000000
2674.500000 -3243.000000 -1407.000000
2674.500000 -3243.000000 -1405.000000
2674.500000 -3243.000000 -1403.000000
2674.500000 -3243.000000 -1401.000000
2674.500000 -3243.000000 -1399.000000
2674.500000 -3243.000000 -1397.000000
2674.500000 -3243.000000 -1395.000000
2674.500000 -3243.000000 -1393.000000
2674.500000 -3243.000000 -1391.000000
2674.500000 -3243.000000 -1389.000000
2674.500000 -3243.000000 -1387.000000
2674.500000 -3243.000000 -1385.000000
2674.500000 -3243.000000 -1383.000000
2674.500000 -3243.000000 -1381.000000
2674.500000 -3243.000000 -1379.000000
2674.500000 -3243.000000 -1377.000000
2674.500000 -3243.000000 -1375.000000
2674.500000 -3243.000000 -1373.000000
2674.500000 -3243.000000 -1371.000000
2674.500000 -3243.000000 -1369.000000
2674.500000 -3243.000000 -1367.000000
2674.500000 -3243.000000 -1365.000000
2674.500000 -3243.000000 -1363.000000
2674.500000 -3243.000000 -1361.000000
2674.500000 -3243.000000 -1359.000000
2674.500000 -3243.000000 -1357.000000
2674.500000 -3243.000000 -1355.000000
2674.500000 -3243.000000 -1353.000000
2674.500000 -3243.000000 -1351.000000
2674.500000 -3243.000000 -1349.000000
2674.500000 -3243.000000 -1347.000000
2674.500000 -3243.000000 -1345.000000
2674.500000 -3243.000000 -1343.000000
2674.500000 -3243.000000 -1341.000000
2674.500000 -3243.000000 -1339.000000
2674.500000 -3243.000000 -1337.000000
2674.500000 -3243.000000 -1335.000000
2674.500000 -3243.000000 -1333.000000
2674.500000 -3243.000000 -1331.000000
2674.500000 -3243.000000 -1329.000000
2674.500000 -3243.000000 -1327.000000
2674.500000 -3243.000000 -1325.000000
2674.500000 -3243.000000 -1323.000000
2674.500000 -3243.000000 -1321.000000
2674.500000 -3243.000000 -1319.000000
2674.500000 -3243.000000 -1317.000000
2674.500000 -3243.000000 -1315.000000
2674.500000 -3243.000000 -1313.000000
2674.500000 -3243.000000 -1311.000000
2674.500000 -3243.000000 -1309.000000
2674.500000 -3243.000000 -1307.000000
2674.500000 -3243.000000 -1305.000000
2674.500000 -3243.000000 -1303.000000
2674.500000 -3243.000000 -1301.000000
2674.500000 -3243.000000 -1299.000000
2674.500000 -3243.000000 -1297.000000
2674.500000 -3243.000000 -1295.000000
2674.500000 -3243.000000 -1293.000000
2674.500000 -3243.000000 -1291.000000
2674.500000 -3243.000000 -1289.000000
2674.500000 -3243.000000 -1287.000000
2674.500000 -3243.000000 -1285.000000
2674.500000 -3243.000000 -1283.000000
2674.500000 -3243.000000 -1281.000000
2674.500000 -3243.000000 -1279.000000
2674.500000 -3243.000000 -1277.000000
2674.500000 -3243.000000 -1275.000000
2674.500000 -3243.000000 -1273.000000
2674.500000 -3243.000000 -1271.000000
2674.500000 -3243.000000 -1269.000000
2674.500000 -3243.000000 -1267.000000
2674.500000 -3243.000000 -1265.000000
2674.500000 -3243.000000 -1263.000000
2674.500000 -3243.000000 -1261.000000
2674.500000 -3243.000000 -1259.000000
2674.500000 -3243.000000 -1257.000000
2674.500000 -3243.000000 -1255.000000
2674.500000 -3243.000000 -1253.000000
2674.500000 -3243.000000 -1251.000000
2674.500000 -3243.000000 -1249.000000
2674.500000 -3243.000000 -1247.000000
2674.500000 -3243.000000 -1245.000000
2674.500000 -3243.000000 -1243.000000
2674.500000 -3243.000000 -1241.000000
2674.500000 -3243.000000 -1239.000000
2674.500000 -3243.000000 -1237.000000
2674.500000 -3243.000000 -1235.000000
2674.500000 -3243.000000 -1233.000000
2674.500000 -3243.000000 -1231.000000
2674.500000 -3243.000000 -1229.000000
2674.500000 -3243.000000 -1227.000000
2674.500000 -3243.000000 -1225.000000
2674.500000 -3243.000000 -1223.000000
2674.500000 -3243.000000 -1221.000000
2674.500000 -3243.000000 -1219.000000
2674.500000 -3243.000000 -1217.000000
2674.500000 -3243.000000 -1215.000000
2674.500000 -3243.000000 -1213.000000
2674.500000 -3243.000000 -1211.000000
2674.500000 -3243.000000 -1209.000000
2674.500000 -3243.000000 -1207.000000
2674.500000 -3243.000000 -1205.000000
2674.500000 -3243.000000 -1203.000000
2674.500000 -3243.000000 -1201.000000
2674.500000 -3243.000000 -1199.000000
2674.500000 -3243.000000 -1197.000000
2674.500000 -3243.000000 -1195.000000
2674.500000 -3243.000000 -1193.000000
2674.500000 -3243.000000 -1191.000000
2674.500000 -3243.000000 -1189.000000
2674.500000 -3243.000000 -1187.000000
2674.500000 -3243.000000 -1185.000000
2674.500000 -3243.000000 -1183.000000
2674.500000 -3243.000000 -1181.000000
2674.500000 -3243.000000 -1179.000000
2674.500000 -3243.000000 -1177.000000
2674.500000 -3243.000000 -1175.000000
2674.500000 -3243.000000 -1173.000000
2674.500000 -3243.000000 -1171.000000
2674.500000 -3243.000000 -1169.000000
2674.500000 -3243.000000 -1167.000000
2674.500000 -3243.000000 -1165.000000
2674.500000 -3243.000000 -1163.000000
2674.500000 -3243.000000 -1161.000000
2674.500000 -3243.000000 -1159.000000
2674.500000 -3243.000000 -1157.000000
2674.500000 -3243.000000 -1155.000000
2674.500000 -3243.000000 -1153.000000
2674.500000 -3243.000000 -1151.000000
2674.500000 -3243.000000 -1149.000000
2674.500000 -3243.000000 -1147.000000
2674.500000 -3243.000000 -1145.000000
2674.500000 -3243.000000 -1143.000000
2674.500000 -3243.000000 -1141.000000
2674.500000 -3243.000000 -1139.000000
2674.500000 -3243.000000 -1137.000000
2674.500000 -3243.000000 -1135.000000
2674.500000 -3243.000000 -1133.000000
2674.500000 -3243.000000 -1131.000000
2674.500000 -3243.000000 -1129.000000
2674.500000 -3243.000000 -1127.000000
2674.500000 -3243.000000 -1125.000000
2674.500000 -3243.000000 -1123.000000
2674.500000 -3243.000000 -1121.000000
2674.500000 -3243.000000 -1119.000000
2674.500000 -3243.000000 -1117.000000
2674.500000 -3243.000000 -1115.000000
2674.500000 -3243.000000 -1113.000000
2674.500000 -3243.000000 -1111.000000
2674.500000 -3243.000000 -1109.000000
2674.500000 -3243.000000 -1107.000000
2674.500000 -3243.000000 -1105.000000
2674.500000 -3243.000000 -1103.000000
2674.500000 -3243.000000 -1101.000000
2674.500000 -3243.000000 -1099.000000
2674.500000 -3243.000000 -1097.000000
2674.500000 -3243.000000 -1095.000000
2674.500000 -3243.000000 -1093.000000
2674.500000 -3243.000000 -1091.000000
2674.500000 -3243.000000 -1089.000000
2674.500000 -3243.000000 -1087.000000
2674.500000 -3243.000000 -1085.000000
2674.500000 -3243.000000 -1083.000000
2674.500000 -3243.000000 -1081.000000
2674.500000 -3243.000000 -1079.000000
2674.500000 -3243.000000 -1077.000000
2674.500000 -3243.000000 -1075.000000
2674.500000 -3243.000000 -1073.000000
2674.500000 -3243.000000 -1071.000000
2674.500000 -3243.000000 -1069.000000
2674.500000 -3243.000000 -1067.000000
2674.500000 -3243.000000 -1065.000000
2674.500000 -3243.000000 -1063.000000
2674.500000 -3243.000000 -1061.000000
2674.500000 -3243.000000 -1059.000000
2674.500000 -3243.000000 -1057.000000
2674.500000 -3243.000000 -1055.000000
2674.500000 -3243.000000 -1053.000000
2674.500000 -3243.000000 -1051.000000
2674.500000 -3243.000000 -1049.000000
2674.500000 -3243.000000 -1047.000000
2674.500000 -3243.000000 -1045.000000
2674.500000 -3243.000000 -1043.000000
2674.500000 -3243.000000 -1041.000000
2674.500000 -3243.000000 -1039.000000
2674.500000 -3243.000000 -1037.000000
2674.500000 -3243.000000 -1035.000000
2674.500000 -3243.000000 -1033.000000
2674.500000 -3243.000000 -1031.000000
2674.500000 -3243.000000 -1029.000000
2674.500000 -3243.000000 -1027.000000
2674.500000 -3243.000000 -1025.000000
2674.500000 -3243.000000 -1023.000000
2674.500000 -3243.000000 -1021.000000
2674.500000 -3243.000000 -1019.000000
2674.500000 -3243.000000 -1017.000000
2674.500000 -3243.000000 -1015.000000
2674.500000 -3243.000000 -1013.000000
2674.500000 -3243.000000 -1011.000000
2674.500000 -3243.000000 -1009.000000
2674.500000 -3243.000000 -1007.000000
2674.500000 -3243.000000 -1005.000000
2674.500000 -3243.000000 -1003.000000
2674.500000 -3243.000000 -1001.000000
2674.500000 -3243.000000 -999.000000
2674.500000 -3243.000000 -997.000000
2674.500000 -3243.000000 -995.000000
2674.500000 -3243.000000 -993.000000
2674.500000 -3243.000000 -991.000000
2674.500000 -3243.000000 -989.000000
2674.500000 -3243.000000 -987.000000
2674.500000 -3243.000000 -985.000000
2674.500000 -3243.000000 -983.000000
2674.500000 -3243.000000 -981.000000
2674.500000 -3243.000000 -979.000000
2674.500000 -3243.000000 -977.000000
2674.500000 -3243.000000 -975.000000
2674.500000 -3243.000000 -973.000000
2674.500000 -3243.000000 -971.000000
2674.500000 -3243.000000 -969.000000
2674.500000 -3243.000000 -967.000000
2674.500000 -3243.000000 -965.000000
2674.500000 -3243.000000 -963.000000
2674.500000 -3243.000000 -961.000000
2674.500000 -3243.000000 -959.000000
2674.500000 -3243.000000 -957.000000
2674.500000 -3243.000000 -955.000000
2674.500000 -3243.000000 -953.000000
2674.500000 -3243.000000 -951.000000
2674.500000 -3243.000000 -949.000000
2674.500000 -3243.000000 -947.000000
2674.500000 -3243.000000 -945.000000
2674.500000 -3243.000000 -943.000000
2674.500000 -3243.000000 -941.000000
2674.500000 -3243.000000 -939.000000
2674.500000 -3243.000000 -937.000000
2674.500000 -3243.000000 -935.000000
2674.500000 -3243.000000 -933.000000
2674.500000 -3243.000000 -931.000000
2273.000000 -3242.500000 -1523.000000
2273.000000 -3242.500000 -1523.000000
2274.999998 -3242.502491 -1523.000000
2276.999997 -3242.504981 -1523.000000
2278.999995 -3242.507472 -1523.000000
2280.999994 -3242.509963 -1523.000000
2282.999992 -3242.512453 -1523.000000
2284.999991 -3242.514944 -1523.000000
2286.999989 -3242.517435 -1523.000000
2288.999988 -3242.519925 -1523.000000
2290.999986 -3242.522416 -1523.000000
2292.999984 -3242.524907 -1523.000000
2294.999983 -3242.527397 -1523.000000
2296.999981 -3242.529888 -1523.000000
2298.999980 -3242.532379 -1523.000000
2300.999978 -3242.534869 -1523.000000
2302.999977 -3242.537360 -1523.000000
2304.999975 -3242.539851 -1523.000000
2306.999974 -3242.542341 -1523.000000
2308.999972 -3242.544832 -1523.000000
2310.999971 -3242.547323 -1523.000000
2312.999969 -3242.549813 -1523.000000
2314.999967 -3242.552304 -1523.000000
2316.999966 -3242.554794 -1523.000000
2318.999964 -3242.557285 -1523.000000
2320.999963 -3242.559776 -1523.000000
2322.999961 -3242.562266 -1523.000000
2324.999960 -3242.564757 -1523.000000
2326.999958 -3242.567248 -1523.000000
2328.999957 -3242.569738 -1523.000000
2330.999955 -3242.572229 -1523.000000
2332.999953 -3242.574720 -1523.000000
2334.999952 -3242.577210 -1523.000000
2336.999950 -3242.579701 -1523.000000
2338.999949 -3242.582192 -1523.000000
2340.999947 -3242.584682 -1523.000000
2342.999946 -3242.587173 -1523.000000
2344.999944 -3242.589664 -1523.000000
2346.999943 -3242.592154 -1523.000000
2348.999941 -3242.594645 -1523.000000
2350.999940 -3242.597136 -1523.000000
2352.999938 -3242.599626 -1523.000000
2354.999936 -3242.602117 -1523.000000
2356.999935 -3242.604608 -1523.000000
2358.999933 -3242.607098 -1523.000000
2360.999932 -3242.609589 -1523.000000
2362.999930 -3242.612080 -1523.000000
2364.999929 -3242.614570 -1523.000000
2366.999927 -3242.617061 -1523.000000
2368.999926 -3242.619552 -1523.000000
2370.999924 -3242.622042 -1523.000000
2372.999922 -3242.624533 -1523.000000
2374.999921 -3242.627024 -1523.000000
2376.999919 -3242.629514 -1523.000000
2378.999918 -3242.632005 -1523.000000
2380.999916 -3242.634496 -1523.000000
2382.999915 -3242.636986 -1523.000000
2384.999913 -3242.639477 -1523.000000
2386.999912 -3242.641968 -1523.000000
2388.999910 -3242.644458 -1523.000000
2390.999909 -3242.646949 -1523.000000
2392.999907 -3242.649439 -1523.000000
2394.999905 -3242.651930 -1523.000000
2396.999904 -3242.654421 -1523.000000
2398.999902 -3242.656911 -1523.000000
2400.999901 -3242.659402 -1523.000000
2402.999899 -3242.661893 -1523.000000
2404.999898 -3242.664383 -1523.000000
2406.999896 -3242.666874 -1523.000000
2408.999895 -3242.669365 -1523.000000
2410.999893 -3242.671855 -1523.000000
2412.999891 -3242.674346 -1523.000000
2414.999890 -3242.676837 -1523.000000
2416.999888 -3242.679327 -1523.000000
2418.999887 -3242.681818 -1523.000000
2420.999885 -3242.684309 -1523.000000
2422.999884 -3242.686799 -1523.000000
2424.999882 -3242.689290 -1523.000000
2426.999881 -3242.691781 -1523.000000
2428.999879 -3242.694271 -1523.000000
2430.999877 -3242.696762 -1523.000000
2432.999876 -3242.699253 -1523.000000
2434.999874 -3242.701743 -1523.000000
2436.999873 -3242.704234 -1523.000000
2438.999871 -3242.706725 -1523.000000
2440.999870 -3242.709215 -1523.000000
2442.999868 -3242.711706 -1523.000000
2444.999867 -3242.714197 -1523.000000
2446.999865 -3242.716687 -1523.000000
2448.999864 -3242.719178 -1523.000000
2450.999862 -3242.721669 -1523.000000
2452.999860 -3242.724159 -1523.000000
2454.999859 -3242.726650 -1523.000000
2456.999857 -3242.729141 -1523.000000
2458.999856 -3242.731631 -1523.000000
2460.999854 -3242.734122 -1523.000000
2462.999853 -3242.736613 -1523.000000
2464.999851 -3242.739103 -1523.000000
2466.999850 -3242.741594 -1523.000000
2468.999848 -3242.744084 -1523.000000
2470.999846 -3242.746575 -1523.000000
2472.999845 -3242.749066 -1523.000000
2474.999843 -3242.751556 -1523.000000
2476.999842 -3242.754047 -1523.000000
2478.999840 -3242.756538 -1523.000000
2480.999839 -3242.759028 -1523.000000
2482.999837 -3242.761519 -1523.000000
2484.999836 -3242.764010 -1523.000000
2486.999834 -3242.766500 -1523.000000
2488.999833 -3242.768991 -1523.000000
2490.999831 -3242.771482 -1523.000000
2492.999829 -3242.773972 -1523.000000
2494.999828 -3242.776463 -1523.000000
2496.999826 -3242.778954 -1523.000000
2498.999825 -3242.781444 -1523.000000
2500.999823 -3242.783935 -1523.000000
2502.999822 -3242.786426 -1523.000000
2504.999820 -3242.788916 -1523.000000
2506.999819 -3242.791407 -1523.000000
2508.999817 -3242.793898 -1523.000000
2510.999815 -3242.796388 -1523.000000
2512.999814 -3242.798879 -1523.000000
2514.999812 -3242.801370 -1523.000000
2516.999811 -3242.803860 -1523.000000
2518.999809 -3242.806351 -1523.000000
2520.999808 -3242.808842 -1523.000000
2522.999806 -3242.811332 -1523.000000
2524.999805 -3242.813823 -1523.000000
2526.999803 -3242.816314 -1523.000000
2528.999801 -3242.818804 -1523.000000
2530.999800 -3242.821295 -1523.000000
2532.999798 -3242.823786 -1523.000000
2534.999797 -3242.826276 -1523.000000
2536.999795 -3242.828767 -1523.000000
2538.999794 -3242.831258 -1523.000000
2540.999792 -3242.833748 -1523.000000
2542.999791 -3242.836239 -1523.000000
2544.999789 -3242.838730 -1523.000000
2546.999788 -3242.841220 -1523.000000
2548.999786 -3242.843711 -1523.000000
2550.999784 -3242.846201 -1523.000000
2552.999783 -3242.848692 -1523.000000
2554.999781 -3242.851183 -1523.000000
2556.999780 -3242.853673 -1523.000000
2558.999778 -3242.856164 -1523.000000
2560.999777 -3242.858655 -1523.000000
2562.999775 -3242.861145 -1523.000000
2564.999774 -3242.863636 -1523.000000
2566.999772 -3242.866127 -1523.000000
2568.999770 -3242.868617 -1523.000000
2570.999769 -3242.871108 -1523.000000
2572.999767 -3242.873599 -1523.000000
2574.999766 -3242.876089 -1523.000000
2576.999764 -3242.878580 -1523.000000
2578.999763 -3242.881071 -1523.000000
2580.999761 -3242.883561 -1523.000000
2582.999760 -3242.886052 -1523.000000
2584.999758 -3242.888543 -1523.000000
2586.999757 -3242.891033 -1523.000000
2588.999755 -3242.893524 -1523.000000
2590.999753 -3242.896015 -1523.000000
2592.999752 -3242.898505 -1523.000000
2594.999750 -3242.900996 -1523.000000
2596.999749 -3242.903487 -1523.000000
2598.999747 -3242.905977 -1523.000000
2600.999746 -3242.908468 -1523.000000
2602.999744 -3242.910959 -1523.000000
2604.999743 -3242.913449 -1523.000000
2606.999741 -3242.915940 -1523.000000
2608.999739 -3242.918431 -1523.000000
2610.999738 -3242.920921 -1523.000000
2612.999736 -3242.923412 -1523.000000
2614.999735 -3242.925903 -1523.000000
2616.999733 -3242.928393 -1523.000000
2618.999732 -3242.930884 -1523.000000
2620.999730 -3242.933375 -1523.000000
2622.999729 -3242.935865 -1523.000000
2624.999727 -3242.938356 -1523.000000
2626.999726 -3242.940846 -1523.000000
2628.999724 -3242.943337 -1523.000000
2630.999722 -3242.945828 -1523.000000
2632.999721 -3242.948318 -1523.000000
2634.999719 -3242.950809 -1523.000000
2636.999718 -3242.953300 -1523.000000
2638.999716 -3242.955790 -1523.000000
2640.999715 -3242.958281 -1523.000000
2642.999713 -3242.960772 -1523.000000
2644.999712 -3242.963262 -1523.000000
2646.999710 -3242.965753 -1523.000000
2648.999708 -3242.968244 -1523.000000
2650.999707 -3242.970734 -1523.000000
2652.999705 -3242.973225 -1523.000000
2654.999704 -3242.975716 -1523.000000
2656.999702 -3242.978206 -1523.000000
2658.999701 -3242.980697 -1523.000000
2660.999699 -3242.983188 -1523.000000
2662.999698 -3242.985678 -1523.000000
2664.999696 -3242.988169 -1523.000000
2666.999694 -3242.990660 -1523.000000
2668.999693 -3242.993150 -1523.000000
2670.999691 -3242.995641 -1523.000000
2078.500000 -3242.000000 -1516.000000
2078.500000 -3242.000000 -1516.000000
2080.498699 -3242.005138 -1516.071933
2082.497399 -3242.010276 -1516.143865
2084.496098 -3242.015414 -1516.215798
2086.494798 -3242.020552 -1516.287731
2088.493497 -3242.025690 -1516.359663
2090.492196 -3242.030828 -1516.431596
2092.490896 -3242.035966 -1516.503528
2094.489595 -3242.041104 -1516.575461
2096.488295 -3242.046242 -1516.647394
2098.486994 -3242.051380 -1516.719326
2100.485693 -3242.056518 -1516.791259
2102.484393 -3242.061657 -1516.863192
2104.483092 -3242.066795 -1516.935124
2106.481792 -3242.071933 -1517.007057
2108.480491 -3242.077071 -1517.078989
2110.479190 -3242.082209 -1517.150922
2112.477890 -3242.087347 -1517.222855
2114.476589 -3242.092485 -1517.294787
2116.475289 -3242.097623 -1517.366720
2118.473988 -3242.102761 -1517.438653
2120.472687 -3242.107899 -1517.510585
2122.471387 -3242.113037 -1517.582518
2124.470086 -3242.118175 -1517.654450
2126.468786 -3242.123313 -1517.726383
2128.467485 -3242.128451 -1517.798316
2130.466184 -3242.133589 -1517.870248
2132.464884 -3242.138727 -1517.942181
2134.463583 -3242.143865 -1518.014114
2136.462283 -3242.149003 -1518.086046
2138.460982 -3242.154141 -1518.157979
2140.459681 -3242.159279 -1518.229911
2142.458381 -3242.164417 -1518.301844
2144.457080 -3242.169555 -1518.373777
2146.455780 -3242.174694 -1518.445709
2148.454479 -3242.179832 -1518.517642
2150.453178 -3242.184970 -1518.589575
2152.451878 -3242.190108 -1518.661507
2154.450577 -3242.195246 -1518.733440
2156.449277 -3242.200384 -1518.805372
2158.447976 -3242.205522 -1518.877305
2160.446675 -3242.210660 -1518.949238
2162.445375 -3242.215798 -1519.021170
2164.444074 -3242.220936 -1519.093103
2166.442774 -3242.226074 -1519.165036
2168.441473 -3242.231212 -1519.236968
2170.440172 -3242.236350 -1519.308901
2172.438872 -3242.241488 -1519.380833
2174.437571 -3242.246626 -1519.452766
2176.436271 -3242.251764 -1519.524699
2178.434970 -3242.256902 -1519.596631
2180.433669 -3242.262040 -1519.668564
2182.432369 -3242.267178 -1519.740497
2184.431068 -3242.272316 -1519.812429
2186.429768 -3242.277454 -1519.884362
2188.428467 -3242.282592 -1519.956294
2190.427166 -3242.287731 -1520.028227
2192.425866 -3242.292869 -1520.100160
2194.424565 -3242.298007 -1520.172092
2196.423265 -3242.303145 -1520.244025
2198.421964 -3242.308283 -1520.315958
2200.420663 -3242.313421 -1520.387890
2202.419363 -3242.318559 -1520.459823
2204.418062 -3242.323697 -1520.531755
2206.416762 -3242.328835 -1520.603688
2208.415461 -3242.333973 -1520.675621
2210.414161 -3242.339111 -1520.747553
2212.412860 -3242.344249 -1520.819486
2214.411559 -3242.349387 -1520.891419
2216.410259 -3242.354525 -1520.963351
2218.408958 -3242.359663 -1521.035284
2220.407658 -3242.364801 -1521.107216
2222.406357 -3242.369939 -1521.179149
2224.405056 -3242.375077 -1521.251082
2226.403756 -3242.380215 -1521.323014
2228.402455 -3242.385353 -1521.394947
2230.401155 -3242.390491 -1521.466880
2232.399854 -3242.395629 -1521.538812
2234.398553 -3242.400767 -1521.610745
2236.397253 -3242.405906 -1521.682677
2238.395952 -3242.411044 -1521.754610
2240.394652 -3242.416182 -1521.826543
2242.393351 -3242.421320 -1521.898475
2244.392050 -3242.426458 -1521.970408
2246.390750 -3242.431596 -1522.042341
2248.389449 -3242.436734 -1522.114273
2250.388149 -3242.441872 -1522.186206
2252.386848 -3242.447010 -1522.258138
2254.385547 -3242.452148 -1522.330071
2256.384247 -3242.457286 -1522.402004
2258.382946 -3242.462424 -1522.473936
2260.381646 -3242.467562 -1522.545869
2262.380345 -3242.472700 -1522.617802
2264.379044 -3242.477838 -1522.689734
2266.377744 -3242.482976 -1522.761667
2268.376443 -3242.488114 -1522.833599
2270.375143 -3242.493252 -1522.905532
2261.339257 -2496.758919 -920.000000
2261.339257 -2496.758919 -920.000000
2260.962895 -2498.292948 -921.226827
2260.586532 -2499.826978 -922.453654
2260.210170 -2501.361008 -923.680480
2259.833807 -2502.895038 -924.907307
2259.457445 -2504.429067 -926.134134
2259.081082 -2505.963097 -927.360961
2258.704719 -2507.497127 -928.587788
2258.328357 -2509.031157 -929.814614
2257.951994 -2510.565186 -931.041441
2257.575632 -2512.099216 -932.268268
2257.199269 -2513.633246 -933.495095
2256.822906 -2515.167276 -934.721921
2256.446544 -2516.701305 -935.948748
2256.070181 -2518.235335 -937.175575
2255.693819 -2519.769365 -938.402402
2255.317456 -2521.303394 -939.629229
2254.941094 -2522.837424 -940.856055
2254.564731 -2524.371454 -942.082882
2254.188368 -2525.905484 -943.309709
2253.812006 -2527.439513 -944.536536
2253.435643 -2528.973543 -945.763363
2253.059281 -2530.507573 -946.990189
2252.682918 -2532.041603 -948.217016
2252.306555 -2533.575632 -949.443843
2251.930193 -2535.109662 -950.670670
2251.553830 -2536.643692 -951.897497
2251.177468 -2538.177722 -953.124323
2250.801105 -2539.711751 -954.351150
2250.424743 -2541.245781 -955.577977
2250.048380 -2542.779811 -956.804804
2249.672017 -2544.313841 -958.031630
2249.295655 -2545.847870 -959.258457
2248.919292 -2547.381900 -960.485284
2248.542930 -2548.915930 -961.712111
2248.166567 -2550.449959 -962.938938
2247.790204 -2551.983989 -964.165764
2247.413842 -2553.518019 -965.392591
2247.037479 -2555.052049 -966.619418
2246.661117 -2556.586078 -967.846245
2246.284754 -2558.120108 -969.073072
2245.908392 -2559.654138 -970.299898
2245.532029 -2561.188168 -971.526725
2245.155666 -2562.722197 -972.753552
2244.779304 -2564.256227 -973.980379
2244.402941 -2565.790257 -975.207206
2244.026579 -2567.324287 -976.434032
2243.650216 -2568.858316 -977.660859
2243.273853 -2570.392346 -978.887686
2242.897491 -2571.926376 -980.114513
2242.521128 -2573.460406 -981.341339
2242.144766 -2574.994435 -982.568166
2241.768403 -2576.528465 -983.794993
2241.392041 -2578.062495 -985.021820
2241.015678 -2579.596524 -986.248647
2240.639315 -2581.130554 -987.475473
2240.262953 -2582.664584 -988.702300
2239.886590 -2584.198614 -989.929127
2239.510228 -2585.732643 -991.155954
2239.133865 -2587.266673 -992.382781
2238.757502 -2588.800703 -993.609607
2238.381140 -2590.334733 -994.836434
2238.004777 -2591.868762 -996.063261
2237.628415 -2593.402792 -997.290088
2237.252052 -2594.936822 -998.516915
2236.875690 -2596.470852 -999.743741
2236.499327 -2598.004881 -1000.970568
2236.122964 -2599.538911 -1002.197395
2235.746602 -2601.072941 -1003.424222
2235.370239 -2602.606971 -1004.651048
2234.993877 -2604.141000 -1005.877875
2234.617514 -2605.675030 -1007.104702
2234.241151 -2607.209060 -1008.331529
2233.864789 -2608.743089 -1009.558356
2233.488426 -2610.277119 -1010.785182
2233.112064 -2611.811149 -1012.012009
2232.735701 -2613.345179 -1013.238836
2232.359339 -2614.879208 -1014.465663
2231.982976 -2616.413238 -1015.692490
2231.606613 -2617.947268 -1016.919316
2231.230251 -2619.481298 -1018.146143
2230.853888 -2621.015327 -1019.372970
2230.477526 -2622.549357 -1020.599797
2230.101163 -2624.083387 -1021.826624
2229.724800 -2625.617417 -1023.053450
2229.348438 -2627.151446 -1024.280277
2228.972075 -2628.685476 -1025.507104
2228.595713 -2630.219506 -1026.733931
2228.219350 -2631.753536 -1027.960757
2227.842988 -2633.287565 -1029.187584
2227.466625 -2634.821595 -1030.414411
2227.090262 -2636.355625 -1031.641238
2226.713900 -2637.889654 -1032.868065
2226.337537 -2639.423684 -1034.094891
2225.961175 -2640.957714 -1035.321718
2225.584812 -2642.491744 -1036.548545
2225.208450 -2644.025773 -1037.775372
2224.832087 -2645.559803 -1039.002199
2224.455724 -2647.093833 -1040.229025
2224.079362 -2648.627863 -1041.455852
2223.702999 -2650.161892 -1042.682679
2223.326637 -2651.695922 -1043.909506
2222.950274 -2653.229952 -1045.136333
2222.573911 -2654.763982 -1046.363159
2222.197549 -2656.298011 -1047.589986
2221.821186 -2657.832041 -1048.816813
2221.444824 -2659.366071 -1050.043640
2221.068461 -2660.900101 -1051.270466
2220.692099 -2662.434130 -1052.497293
2220.315736 -2663.968160 -1053.724120
2219.939373 -2665.502190 -1054.950947
2219.563011 -2667.036219 -1056.177774
2219.186648 -2668.570249 -1057.404600
2218.810286 -2670.104279 -1058.631427
2218.433923 -2671.638309 -1059.858254
2218.057560 -2673.172338 -1061.085081
2217.681198 -2674.706368 -1062.311908
2217.304835 -2676.240398 -1063.538734
2216.928473 -2677.774428 -1064.765561
2216.552110 -2679.308457 -1065.992388
2216.175748 -2680.842487 -1067.219215
2215.799385 -2682.376517 -1068.446042
2215.423022 -2683.910547 -1069.672868
2215.046660 -2685.444576 -1070.899695
2214.670297 -2686.978606 -1072.126522
2214.293935 -2688.512636 -1073.353349
2213.917572 -2690.046666 -1074.580176
2213.541209 -2691.580695 -1075.807002
2213.164847 -2693.114725 -1077.033829
2212.788484 -2694.648755 -1078.260656
2212.412122 -2696.182785 -1079.487483
2212.035759 -2697.716814 -1080.714309
2211.659397 -2699.250844 -1081.941136
2211.283034 -2700.784874 -1083.167963
2210.906671 -2702.318903 -1084.394790
2210.530309 -2703.852933 -1085.621617
2210.153946 -2705.386963 -1086.848443
2209.777584 -2706.920993 -1088.075270
2209.401221 -2708.455022 -1089.302097
2209.024858 -2709.989052 -1090.528924
2208.648496 -2711.523082 -1091.755751
2208.272133 -2713.057112 -1092.982577
2207.895771 -2714.591141 -1094.209404
2207.519408 -2716.125171 -1095.436231
2207.143046 -2717.659201 -1096.663058
2206.766683 -2719.193231 -1097.889885
2206.390320 -2720.727260 -1099.116711
2206.013958 -2722.261290 -1100.343538
2205.637595 -2723.795320 -1101.570365
2205.261233 -2725.329350 -1102.797192
2204.884870 -2726.863379 -1104.024018
2204.508507 -2728.397409 -1105.250845
2204.132145 -2729.931439 -1106.477672
2203.755782 -2731.465468 -1107.704499
2203.379420 -2732.999498 -1108.931326
2203.003057 -2734.533528 -1110.158152
2202.626695 -2736.067558 -1111.384979
2202.250332 -2737.601587 -1112.611806
2201.873969 -2739.135617 -1113.838633
2201.497607 -2740.669647 -1115.065460
2201.121244 -2742.203677 -1116.292286
2200.744882 -2743.737706 -1117.519113
2200.368519 -2745.271736 -1118.745940
2199.992156 -2746.805766 -1119.972767
2199.615794 -2748.339796 -1121.199594
2199.239431 -2749.873825 -1122.426420
2198.863069 -2751.407855 -1123.653247
2198.486706 -2752.941885 -1124.880074
2198.110344 -2754.475915 -1126.106901
2197.733981 -2756.009944 -1127.333727
2197.357618 -2757.543974 -1128.560554
2196.981256 -2759.078004 -1129.787381
2196.604893 -2760.612033 -1131.014208
2196.228531 -2762.146063 -1132.241035
2195.852168 -2763.680093 -1133.467861
2195.475805 -2765.214123 -1134.694688
2195.099443 -2766.748152 -1135.921515
2194.723080 -2768.282182 -1137.148342
2194.346718 -2769.816212 -1138.375169
2193.970355 -2771.350242 -1139.601995
2193.593993 -2772.884271 -1140.828822
2193.217630 -2774.418301 -1142.055649
2192.841267 -2775.952331 -1143.282476
2192.464905 -2777.486361 -1144.509303
2192.088542 -2779.020390 -1145.736129
2191.712180 -2780.554420 -1146.962956
2191.335817 -2782.088450 -1148.189783
2190.959454 -2783.622480 -1149.416610
2190.583092 -2785.156509 -1150.643436
2190.206729 -2786.690539 -1151.870263
2189.830367 -2788.224569 -1153.097090
2189.454004 -2789.758598 -1154.323917
2189.077642 -2791.292628 -1155.550744
2188.701279 -2792.826658 -1156.777570
2188.324916 -2794.360688 -1158.004397
2187.948554 -2795.894717 -1159.231224
2187.572191 -2797.428747 -1160.458051
2187.195829 -2798.962777 -1161.684878
2186.819466 -2800.496807 -1162.911704
2186.443103 -2802.030836 -1164.138531
2186.066741 -2803.564866 -1165.365358
2185.690378 -2805.098896 -1166.592185
2185.314016 -2806.632926 -1167.819012
2184.937653 -2808.166955 -1169.045838
2184.561291 -2809.700985 -1170.272665
2184.184928 -2811.235015 -1171.499492
2183.808565 -2812.769045 -1172.726319
2183.432203 -2814.303074 -1173.953145
2183.055840 -2815.837104 -1175.179972
2182.679478 -2817.371134 -1176.406799
2182.303115 -2818.905163 -1177.633626
2181.926753 -2820.439193 -1178.860453
2181.550390 -2821.973223 -1180.087279
2181.174027 -2823.507253 -1181.314106
2180.797665 -2825.041282 -1182.540933
2180.421302 -2826.575312 -1183.767760
2180.044940 -2828.109342 -1184.994587
2179.668577 -2829.643372 -1186.221413
2179.292214 -2831.177401 -1187.448240
2178.915852 -2832.711431 -1188.675067
2178.539489 -2834.245461 -1189.901894
2178.163127 -2835.779491 -1191.128721
2177.786764 -2837.313520 -1192.355547
2177.410402 -2838.847550 -1193.582374
2177.034039 -2840.381580 -1194.809201
2176.657676 -2841.915610 -1196.036028
2176.281314 -2843.449639 -1197.262854
2175.904951 -2844.983669 -1198.489681
2175.528589 -2846.517699 -1199.716508
2175.152226 -2848.051728 -1200.943335
2174.775863 -2849.585758 -1202.170162
2174.399501 -2851.119788 -1203.396988
2174.023138 -2852.653818 -1204.623815
2173.646776 -2854.187847 -1205.850642
2173.270413 -2855.721877 -1207.077469
2172.894051 -2857.255907 -1208.304296
2172.517688 -2858.789937 -1209.531122
2172.141325 -2860.323966 -1210.757949
2171.764963 -2861.857996 -1211.984776
2171.388600 -2863.392026 -1213.211603
2171.012238 -2864.926056 -1214.438430
2170.635875 -2866.460085 -1215.665256
2170.259512 -2867.994115 -1216.892083
2169.883150 -2869.528145 -1218.118910
2169.506787 -2871.062175 -1219.345737
2169.130425 -2872.596204 -1220.572563
2168.754062 -2874.130234 -1221.799390
2168.377700 -2875.664264 -1223.026217
2168.001337 -2877.198293 -1224.253044
2167.624974 -2878.732323 -1225.479871
2167.248612 -2880.266353 -1226.706697
2166.872249 -2881.800383 -1227.933524
2166.495887 -2883.334412 -1229.160351
2166.119524 -2884.868442 -1230.387178
2165.743161 -2886.402472 -1231.614005
2165.366799 -2887.936502 -1232.840831
2164.990436 -2889.470531 -1234.067658
2164.614074 -2891.004561 -1235.294485
2164.237711 -2892.538591 -1236.521312
2163.861349 -2894.072621 -1237.748139
2163.484986 -2895.606650 -1238.974965
2163.108623 -2897.140680 -1240.201792
2162.732261 -2898.674710 -1241.428619
2162.355898 -2900.208740 -1242.655446
2161.979536 -2901.742769 -1243.882272
2161.603173 -2903.276799 -1245.109099
2161.226810 -2904.810829 -1246.335926
2160.850448 -2906.344858 -1247.562753
2160.474085 -2907.878888 -1248.789580
2160.097723 -2909.412918 -1250.016406
2159.721360 -2910.946948 -1251.243233
2159.344998 -2912.480977 -1252.470060
2158.968635 -2914.015007 -1253.696887
2158.592272 -2915.549037 -1254.923714
2158.215910 -2917.083067 -1256.150540
2157.839547 -2918.617096 -1257.377367
2157.463185 -2920.151126 -1258.604194
2157.086822 -2921.685156 -1259.831021
2156.710459 -2923.219186 -1261.057848
2156.334097 -2924.753215 -1262.284674
2155.957734 -2926.287245 -1263.511501
2155.581372 -2927.821275 -1264.738328
2155.205009 -2929.355305 -1265.965155
2154.828647 -2930.889334 -1267.191981
2154.452284 -2932.423364 -1268.418808
2154.075921 -2933.957394 -1269.645635
2153.699559 -2935.491424 -1270.872462
2153.323196 -2937.025453 -1272.099289
2152.946834 -2938.559483 -1273.326115
2152.570471 -2940.093513 -1274.552942
2152.194108 -2941.627542 -1275.779769
2151.817746 -2943.161572 -1277.006596
2151.441383 -2944.695602 -1278.233423
2151.065021 -2946.229632 -1279.460249
2150.688658 -2947.763661 -1280.687076
2150.312296 -2949.297691 -1281.913903
2149.935933 -2950.831721 -1283.140730
2149.559570 -2952.365751 -1284.367557
2149.183208 -2953.899780 -1285.594383
2148.806845 -2955.433810 -1286.821210
2148.430483 -2956.967840 -1288.048037
2148.054120 -2958.501870 -1289.274864
2147.677757 -2960.035899 -1290.501690
2147.301395 -2961.569929 -1291.728517
2146.925032 -2963.103959 -1292.955344
2146.548670 -2964.637989 -1294.182171
2146.172307 -2966.172018 -1295.408998
2145.795945 -2967.706048 -1296.635824
2145.419582 -2969.240078 -1297.862651
2145.043219 -2970.774107 -1299.089478
2144.666857 -2972.308137 -1300.316305
2144.290494 -2973.842167 -1301.543132
2143.914132 -2975.376197 -1302.769958
2143.537769 -2976.910226 -1303.996785
2143.161407 -2978.444256 -1305.223612
2142.785044 -2979.978286 -1306.450439
2142.408681 -2981.512316 -1307.677266
2142.032319 -2983.046345 -1308.904092
2141.655956 -2984.580375 -1310.130919
2141.279594 -2986.114405 -1311.357746
2140.903231 -2987.648435 -1312.584573
2140.526868 -2989.182464 -1313.811399
2140.150506 -2990.716494 -1315.038226
2139.774143 -2992.250524 -1316.265053
2139.397781 -2993.784554 -1317.491880
2139.021418 -2995.318583 -1318.718707
2138.645056 -2996.852613 -1319.945533
2138.268693 -2998.386643 -1321.172360
2137.892330 -2999.920672 -1322.399187
2137.515968 -3001.454702 -1323.626014
2137.139605 -3002.988732 -1324.852841
2136.763243 -3004.522762 -1326.079667
2136.386880 -3006.056791 -1327.306494
2136.010517 -3007.590821 -1328.533321
2135.634155 -3009.124851 -1329.760148
2135.257792 -3010.658881 -1330.986975
2134.881430 -3012.192910 -1332.213801
2134.505067 -3013.726940 -1333.440628
2134.128705 -3015.260970 -1334.667455
2133.752342 -3016.795000 -1335.894282
2133.375979 -3018.329029 -1337.121108
2132.999617 -3019.863059 -1338.347935
2132.623254 -3021.397089 -1339.574762
2132.246892 -3022.931119 -1340.801589
2131.870529 -3024.465148 -1342.028416
2131.494166 -3025.999178 -1343.255242
2131.117804 -3027.533208 -1344.482069
2130.741441 -3029.067237 -1345.708896
2130.365079 -3030.601267 -1346.935723
2129.988716 -3032.135297 -1348.162550
2129.612354 -3033.669327 -1349.389376
2129.235991 -3035.203356 -1350.616203
2128.859628 -3036.737386 -1351.843030
2128.483266 -3038.271416 -1353.069857
2128.106903 -3039.805446 -1354.296684
2127.730541 -3041.339475 -1355.523510
2127.354178 -3042.873505 -1356.750337
2126.977815 -3044.407535 -1357.977164
2126.601453 -3045.941565 -1359.203991
2126.225090 -3047.475594 -1360.430817
2125.848728 -3049.009624 -1361.657644
2125.472365 -3050.543654 -1362.884471
2125.096003 -3052.077684 -1364.111298
2124.719640 -3053.611713 -1365.338125
2124.343277 -3055.145743 -1366.564951
2123.966915 -3056.679773 -1367.791778
2123.590552 -3058.213802 -1369.018605
2123.214190 -3059.747832 -1370.245432
2122.837827 -3061.281862 -1371.472259
2122.461464 -3062.815892 -1372.699085
2122.085102 -3064.349921 -1373.925912
2121.708739 -3065.883951 -1375.152739
2121.332377 -3067.417981 -1376.379566
2120.956014 -3068.952011 -1377.606393
2120.579652 -3070.486040 -1378.833219
2120.203289 -3072.020070 -1380.060046
2119.826926 -3073.554100 -1381.286873
2119.450564 -3075.088130 -1382.513700
2119.074201 -3076.622159 -1383.740527
2118.697839 -3078.156189 -1384.967353
2118.321476 -3079.690219 -1386.194180
2117.945113 -3081.224249 -1387.421007
2117.568751 -3082.758278 -1388.647834
2117.192388 -3084.292308 -1389.874660
2116.816026 -3085.826338 -1391.101487
2116.439663 -3087.360367 -1392.328314
2116.063301 -3088.894397 -1393.555141
2115.686938 -3090.428427 -1394.781968
2115.310575 -3091.962457 -1396.008794
2114.934213 -3093.496486 -1397.235621
2114.557850 -3095.030516 -1398.462448
2114.181488 -3096.564546 -1399.689275
2113.805125 -3098.098576 -1400.916102
2113.428762 -3099.632605 -1402.142928
2113.052400 -3101.166635 -1403.369755
2112.676037 -3102.700665 -1404.596582
2112.299675 -3104.234695 -1405.823409
2111.923312 -3105.768724 -1407.050236
2111.546950 -3107.302754 -1408.277062
2111.170587 -3108.836784 -1409.503889
2110.794224 -3110.370814 -1410.730716
2110.417862 -3111.904843 -1411.957543
2110.041499 -3113.438873 -1413.184369
2109.665137 -3114.972903 -1414.411196
2109.288774 -3116.506932 -1415.638023
2108.912411 -3118.040962 -1416.864850
2108.536049 -3119.574992 -1418.091677
2108.159686 -3121.109022 -1419.318503
2107.783324 -3122.643051 -1420.545330
2107.406961 -3124.177081 -1421.772157
2107.030599 -3125.711111 -1422.998984
2106.654236 -3127.245141 -1424.225811
2106.277873 -3128.779170 -1425.452637
2105.901511 -3130.313200 -1426.679464
2105.525148 -3131.847230 -1427.906291
2105.148786 -3133.381260 -1429.133118
2104.772423 -3134.915289 -1430.359945
2104.396060 -3136.449319 -1431.586771
2104.019698 -3137.983349 -1432.813598
2103.643335 -3139.517379 -1434.040425
2103.266973 -3141.051408 -1435.267252
2102.890610 -3142.585438 -1436.494078
2102.514248 -3144.119468 -1437.720905
2102.137885 -3145.653497 -1438.947732
2101.761522 -3147.187527 -1440.174559
2101.385160 -3148.721557 -1441.401386
2101.008797 -3150.255587 -1442.628212
2100.632435 -3151.789616 -1443.855039
2100.256072 -3153.323646 -1445.081866
2099.879710 -3154.857676 -1446.308693
