3292.000000 -1792.155131 -1863.756860
3292.000000 -1790.846199 -1862.244677
3292.000000 -1789.537267 -1860.732494
3292.000000 -1788.228334 -1859.220312
3292.000000 -1786.919402 -1857.708129
3292.000000 -1785.610470 -1856.195947
3292.000000 -1784.301538 -1854.683764
3292.000000 -1782.992605 -1853.171581
3292.000000 -1781.683673 -1851.659399
3292.000000 -1780.374741 -1850.147216
3292.000000 -1779.065808 -1848.635033
3292.000000 -1777.756876 -1847.122851
3292.000000 -1776.447944 -1845.610668
3292.000000 -1775.139012 -1844.098486
3292.000000 -1773.830079 -1842.586303
3292.000000 -1772.521147 -1841.074120
3292.000000 -1771.212215 -1839.561938
3292.000000 -1769.903283 -1838.049755
3292.000000 -1768.594350 -1836.537572
3292.000000 -1767.285418 -1835.025390
3292.000000 -1765.976486 -1833.513207
3292.000000 -1764.667553 -1832.001025
3292.000000 -1763.358621 -1830.488842
3292.000000 -1762.049689 -1828.976659
3292.000000 -1760.740757 -1827.464477
3292.000000 -1759.431824 -1825.952294
3292.000000 -1758.122892 -1824.440111
3292.000000 -1756.813960 -1822.927929
3292.000000 -1755.505028 -1821.415746
3292.000000 -1754.196095 -1819.903563
3292.000000 -1752.887163 -1818.391381
3292.000000 -1751.578231 -1816.879198
3292.000000 -1750.269298 -1815.367016
3292.000000 -1748.960366 -1813.854833
3292.000000 -1747.651434 -1812.342650
3292.000000 -1746.342502 -1810.830468
3292.000000 -1745.033569 -1809.318285
3292.000000 -1743.724637 -1807.806102
3292.000000 -1742.415705 -1806.293920
3292.000000 -1741.106773 -1804.781737
3292.000000 -1739.797840 -1803.269555
3292.000000 -1738.488908 -1801.757372
3292.000000 -1737.179976 -1800.245189
3292.000000 -1735.871043 -1798.733007
3292.000000 -1734.562111 -1797.220824
3292.000000 -1733.253179 -1795.708641
3292.000000 -1731.944247 -1794.196459
3292.000000 -1730.635314 -1792.684276
3292.000000 -1729.326382 -1791.172094
3292.000000 -1728.017450 -1789.659911
3292.000000 -1726.708518 -1788.147728
3292.000000 -1725.399585 -1786.635546
3292.000000 -1724.090653 -1785.123363
3292.000000 -1722.781721 -1783.611180
3292.000000 -1721.472788 -1782.098998
3292.000000 -1720.163856 -1780.586815
3292.000000 -1718.854924 -1779.074633
3292.000000 -1717.545992 -1777.562450
3292.000000 -1716.237059 -1776.050267
3292.000000 -1714.928127 -1774.538085
3292.000000 -1713.619195 -1773.025902
3292.000000 -1712.310262 -1771.513719
3292.000000 -1711.001330 -1770.001537
3292.000000 -1709.692398 -1768.489354
3292.000000 -1708.383466 -1766.977172
3292.000000 -1707.074533 -1765.464989
3292.000000 -1705.765601 -1763.952806
3292.000000 -1704.456669 -1762.440624
3292.000000 -1703.147737 -1760.928441
3292.000000 -1701.838804 -1759.416258
3292.000000 -1700.529872 -1757.904076
3292.000000 -1699.220940 -1756.391893
3292.000000 -1697.912007 -1754.879710
3292.000000 -1696.603075 -1753.367528
3292.000000 -1695.294143 -1751.855345
3292.000000 -1693.985211 -1750.343163
3292.000000 -1692.676278 -1748.830980
3292.000000 -1691.367346 -1747.318797
3292.000000 -1690.058414 -1745.806615
3292.000000 -1688.749482 -1744.294432
3292.000000 -1687.440549 -1742.782249
3292.000000 -1686.131617 -1741.270067
3292.000000 -1684.822685 -1739.757884
3292.000000 -1683.513752 -1738.245702
3292.000000 -1682.204820 -1736.733519
3292.000000 -1680.895888 -1735.221336
3292.000000 -1679.586956 -1733.709154
3292.000000 -1678.278023 -1732.196971
3292.000000 -1676.969091 -1730.684788
3292.000000 -1675.660159 -1729.172606
3292.000000 -1674.351227 -1727.660423
3292.000000 -1673.042294 -1726.148241
3292.000000 -1671.733362 -1724.636058
3292.000000 -1670.424430 -1723.123875
3292.000000 -1669.115497 -1721.611693
3292.000000 -1667.806565 -1720.099510
3292.000000 -1666.497633 -1718.587327
3292.000000 -1665.188701 -1717.075145
3292.000000 -1663.879768 -1715.562962
3292.000000 -1662.570836 -1714.050780
3292.000000 -1661.261904 -1712.538597
3292.000000 -1659.952971 -1711.026414
3292.000000 -1658.644039 -1709.514232
3292.000000 -1657.335107 -1708.002049
3292.000000 -1656.026175 -1706.489866
3292.000000 -1654.717242 -1704.977684
3292.000000 -1653.408310 -1703.465501
3292.000000 -1652.099378 -1701.953319
3292.000000 -1650.790446 -1700.441136
3292.000000 -1649.481513 -1698.928953
3292.000000 -1648.172581 -1697.416771
3292.000000 -1646.863649 -1695.904588
3292.000000 -1645.554716 -1694.392405
3292.000000 -1644.245784 -1692.880223
3292.000000 -1642.936852 -1691.368040
3292.000000 -1641.627920 -1689.855857
3292.000000 -1640.318987 -1688.343675
3292.000000 -1639.010055 -1686.831492
3292.000000 -1637.701123 -1685.319310
3292.000000 -1636.392191 -1683.807127
3292.000000 -1635.083258 -1682.294944
3292.000000 -1633.774326 -1680.782762
3292.000000 -1632.465394 -1679.270579
3292.000000 -1631.156461 -1677.758396
3292.000000 -1629.847529 -1676.246214
3292.000000 -1628.538597 -1674.734031
3292.000000 -1627.229665 -1673.221849
3292.000000 -1625.920732 -1671.709666
3292.000000 -1624.611800 -1670.197483
3292.000000 -1623.302868 -1668.685301
3292.000000 -1621.993936 -1667.173118
3292.000000 -1620.685003 -1665.660935
3292.000000 -1619.376071 -1664.148753
3292.000000 -1618.067139 -1662.636570
3292.000000 -1616.758206 -1661.124388
3292.000000 -1615.449274 -1659.612205
3292.000000 -1614.140342 -1658.100022
3292.000000 -1612.831410 -1656.587840
3292.000000 -1611.522477 -1655.075657
3292.000000 -1610.213545 -1653.563474
3292.000000 -1608.904613 -1652.051292
3292.000000 -1607.595681 -1650.539109
3292.000000 -1606.286748 -1649.026927
3292.000000 -1604.977816 -1647.514744
3292.000000 -1603.668884 -1646.002561
3292.000000 -1602.359951 -1644.490379
3292.000000 -1601.051019 -1642.978196
3292.000000 -1599.742087 -1641.466013
3292.000000 -1598.433155 -1639.953831
3292.000000 -1597.124222 -1638.441648
3292.000000 -1595.815290 -1636.929466
3292.000000 -1594.506358 -1635.417283
3292.000000 -1593.197425 -1633.905100
3292.000000 -1591.888493 -1632.392918
3292.000000 -1590.579561 -1630.880735
3292.000000 -1589.270629 -1629.368552
3292.000000 -1587.961696 -1627.856370
3292.000000 -1586.652764 -1626.344187
3292.000000 -1585.343832 -1624.832004
3292.000000 -1584.034900 -1623.319822
3292.000000 -1582.725967 -1621.807639
3292.000000 -1581.417035 -1620.295457
3292.000000 -1580.108103 -1618.783274
3292.000000 -1578.799170 -1617.271091
3292.000000 -1577.490238 -1615.758909
3292.000000 -1576.181306 -1614.246726
3292.000000 -1574.872374 -1612.734543
3292.000000 -1573.563441 -1611.222361
3292.000000 -1572.254509 -1609.710178
3292.000000 -1570.945577 -1608.197996
3292.000000 -1569.636645 -1606.685813
3292.000000 -1568.327712 -1605.173630
3292.000000 -1567.018780 -1603.661448
3292.000000 -1565.709848 -1602.149265
3292.000000 -1564.400915 -1600.637082
3292.000000 -1563.091983 -1599.124900
3292.000000 -1561.783051 -1597.612717
3292.000000 -1560.474119 -1596.100535
3292.000000 -1559.165186 -1594.588352
3292.000000 -1557.856254 -1593.076169
3292.000000 -1556.547322 -1591.563987
3292.000000 -1555.238390 -1590.051804
3292.000000 -1553.929457 -1588.539621
3292.000000 -1552.620525 -1587.027439
3292.000000 -1551.311593 -1585.515256
3292.000000 -1550.002660 -1584.003074
3292.000000 -1548.693728 -1582.490891
3292.000000 -1547.384796 -1580.978708
3292.000000 -1546.075864 -1579.466526
3292.000000 -1544.766931 -1577.954343
3292.000000 -1543.457999 -1576.442160
3292.000000 -1542.149067 -1574.929978
3292.000000 -1540.840134 -1573.417795
3292.000000 -1539.531202 -1571.905613
3292.000000 -1538.222270 -1570.393430
3292.000000 -1536.913338 -1568.881247
3292.000000 -1535.604405 -1567.369065
3292.000000 -1534.295473 -1565.856882
3292.000000 -1532.986541 -1564.344699
3292.000000 -1531.677609 -1562.832517
3292.000000 -1530.368676 -1561.320334
3292.000000 -1529.059744 -1559.808151
3292.000000 -1527.750812 -1558.295969
3292.000000 -1526.441879 -1556.783786
3292.000000 -1525.132947 -1555.271604
3292.000000 -1523.824015 -1553.759421
3292.000000 -1522.515083 -1552.247238
3292.000000 -1521.206150 -1550.735056
3292.000000 -1519.897218 -1549.222873
3292.000000 -1518.588286 -1547.710690
3292.000000 -1517.279354 -1546.198508
3292.000000 -1515.970421 -1544.686325
3292.000000 -1514.661489 -1543.174143
3292.000000 -1513.352557 -1541.661960
3292.000000 -1512.043624 -1540.149777
3292.000000 -1510.734692 -1538.637595
3292.000000 -1509.425760 -1537.125412
3292.000000 -1508.116828 -1535.613229
3292.000000 -1506.807895 -1534.101047
3292.000000 -1505.498963 -1532.588864
3292.000000 -1504.190031 -1531.076682
3292.000000 -1502.881099 -1529.564499
3292.000000 -1501.572166 -1528.052316
3292.000000 -1500.263234 -1526.540134
3292.000000 -1498.954302 -1525.027951
3292.000000 -1497.645369 -1523.515768
3292.000000 -1496.336437 -1522.003586
3292.000000 -1495.027505 -1520.491403
3292.000000 -1493.718573 -1518.979221
3292.000000 -1492.409640 -1517.467038
3292.000000 -1491.100708 -1515.954855
3292.000000 -1489.791776 -1514.442673
3292.000000 -1488.482844 -1512.930490
3292.000000 -1487.173911 -1511.418307
3292.000000 -1485.864979 -1509.906125
3292.000000 -1484.556047 -1508.393942
3292.000000 -1483.247114 -1506.881760
3292.000000 -1481.938182 -1505.369577
3292.000000 -1480.629250 -1503.857394
3292.000000 -1479.320318 -1502.345212
3292.000000 -1478.011385 -1500.833029
3292.000000 -1476.702453 -1499.320846
3292.000000 -1475.393521 -1497.808664
3292.000000 -1474.084588 -1496.296481
3292.000000 -1472.775656 -1494.784298
3292.000000 -1471.466724 -1493.272116
3292.000000 -1470.157792 -1491.759933
3292.000000 -1468.848859 -1490.247751
3292.000000 -1467.539927 -1488.735568
3292.000000 -1466.230995 -1487.223385
3292.000000 -1464.922063 -1485.711203
3292.000000 -1463.613130 -1484.199020
3292.000000 -1462.304198 -1482.686837
3292.000000 -1460.995266 -1481.174655
3292.000000 -1459.686333 -1479.662472
3292.000000 -1458.377401 -1478.150290
3292.000000 -1457.068469 -1476.638107
3292.000000 -1455.759537 -1475.125924
3292.000000 -1454.450604 -1473.613742
3292.000000 -1453.141672 -1472.101559
3292.000000 -1451.832740 -1470.589376
3292.000000 -1450.523808 -1469.077194
3292.000000 -1449.214875 -1467.565011
3292.000000 -1447.905943 -1466.052829
3292.000000 -1446.597011 -1464.540646
3292.000000 -1445.288078 -1463.028463
3292.000000 -1443.979146 -1461.516281
3292.000000 -1442.670214 -1460.004098
3292.000000 -1441.361282 -1458.491915
3292.000000 -1440.052349 -1456.979733
3292.000000 -1438.743417 -1455.467550
3292.000000 -1437.434485 -1453.955368
3292.000000 -1436.125553 -1452.443185
3292.000000 -1434.816620 -1450.931002
3292.000000 -1433.507688 -1449.418820
3292.000000 -1432.198756 -1447.906637
3292.000000 -1430.889823 -1446.394454
3292.000000 -1429.580891 -1444.882272
3292.000000 -1428.271959 -1443.370089
3292.000000 -1426.963027 -1441.857907
3292.000000 -1425.654094 -1440.345724
3292.000000 -1424.345162 -1438.833541
3292.000000 -1423.036230 -1437.321359
3292.000000 -1421.727297 -1435.809176
3292.000000 -1420.418365 -1434.296993
3292.000000 -1419.109433 -1432.784811
3292.000000 -1417.800501 -1431.272628
3292.000000 -1416.491568 -1429.760445
3292.000000 -1415.182636 -1428.248263
3292.000000 -1413.873704 -1426.736080
3292.000000 -1412.564772 -1425.223898
3292.000000 -1411.255839 -1423.711715
3292.000000 -1409.946907 -1422.199532
3292.000000 -1408.637975 -1420.687350
3292.000000 -1407.329042 -1419.175167
3292.000000 -1406.020110 -1417.662984
3292.000000 -1404.711178 -1416.150802
3292.000000 -1403.402246 -1414.638619
3292.000000 -1402.093313 -1413.126437
3292.000000 -1400.784381 -1411.614254
3292.000000 -1399.475449 -1410.102071
3292.000000 -1398.166517 -1408.589889
3292.000000 -1396.857584 -1407.077706
3292.000000 -1395.548652 -1405.565523
3292.000000 -1394.239720 -1404.053341
3292.000000 -1392.930787 -1402.541158
3292.000000 -1391.621855 -1401.028976
3292.000000 -1390.312923 -1399.516793
3292.000000 -1389.003991 -1398.004610
3292.000000 -1387.695058 -1396.492428
3292.000000 -1386.386126 -1394.980245
3292.000000 -1385.077194 -1393.468062
3292.000000 -1383.768262 -1391.955880
3292.000000 -1382.459329 -1390.443697
3292.000000 -1381.150397 -1388.931515
3292.000000 -1379.841465 -1387.419332
3292.000000 -1378.532532 -1385.907149
3292.000000 -1377.223600 -1384.394967
3292.000000 -1375.914668 -1382.882784
3292.000000 -1374.605736 -1381.370601
3292.000000 -1373.296803 -1379.858419
3292.000000 -1371.987871 -1378.346236
3292.000000 -1370.678939 -1376.834054
3292.000000 -1369.370007 -1375.321871
3292.000000 -1368.061074 -1373.809688
3292.000000 -1366.752142 -1372.297506
3292.000000 -1365.443210 -1370.785323
3292.000000 -1364.134277 -1369.273140
3292.000000 -1362.825345 -1367.760958
3292.000000 -1361.516413 -1366.248775
3292.000000 -1360.207481 -1364.736592
3292.000000 -1358.898548 -1363.224410
3292.000000 -1357.589616 -1361.712227
3292.000000 -1356.280684 -1360.200045
3292.000000 -1354.971751 -1358.687862
3292.000000 -1353.662819 -1357.175679
3292.000000 -1352.353887 -1355.663497
3292.000000 -1351.044955 -1354.151314
3292.000000 -1349.736022 -1352.639131
3292.000000 -1348.427090 -1351.126949
3292.000000 -1347.118158 -1349.614766
3292.000000 -1345.809226 -1348.102584
3292.000000 -1344.500293 -1346.590401
3292.000000 -1343.191361 -1345.078218
3292.000000 -1341.882429 -1343.566036
3292.000000 -1340.573496 -1342.053853
3292.000000 -1339.264564 -1340.541670
3292.000000 -1337.955632 -1339.029488
3292.000000 -1336.646700 -1337.517305
3292.000000 -1335.337767 -1336.005123
3292.000000 -1334.028835 -1334.492940
3292.000000 -1332.719903 -1332.980757
3292.000000 -1331.410971 -1331.468575
3292.000000 -1330.102038 -1329.956392
3292.000000 -1328.793106 -1328.444209
3292.000000 -1327.484174 -1326.932027
3292.000000 -1326.175241 -1325.419844
3292.000000 -1324.866309 -1323.907662
3292.000000 -1323.557377 -1322.395479
3292.000000 -1322.248445 -1320.883296
3292.000000 -1320.939512 -1319.371114
3292.000000 -1319.630580 -1317.858931
3292.000000 -1318.321648 -1316.346748
3292.000000 -1317.012716 -1314.834566
3292.000000 -1315.703783 -1313.322383
3292.000000 -1314.394851 -1311.810201
3292.000000 -1313.085919 -1310.298018
3292.000000 -1311.776986 -1308.785835
3292.000000 -1310.468054 -1307.273653
3292.000000 -1309.159122 -1305.761470
3292.000000 -1307.850190 -1304.249287
3292.000000 -1306.541257 -1302.737105
3292.000000 -1305.232325 -1301.224922
3292.000000 -1303.923393 -1299.712739
3292.000000 -1302.614460 -1298.200557
3292.000000 -1301.305528 -1296.688374
3292.000000 -1299.996596 -1295.176192
3292.000000 -1298.687664 -1293.664009
3292.000000 -1297.378731 -1292.151826
3292.000000 -1296.069799 -1290.639644
3292.000000 -1294.760867 -1289.127461
3292.000000 -1293.451935 -1287.615278
3292.000000 -1292.143002 -1286.103096
3292.000000 -1290.834070 -1284.590913
3292.000000 -1289.525138 -1283.078731
3292.000000 -1288.216205 -1281.566548
3292.000000 -1286.907273 -1280.054365
3292.000000 -1285.598341 -1278.542183
3292.000000 -1284.289409 -1277.030000
3292.000000 -1282.980476 -1275.517817
3292.000000 -1281.671544 -1274.005635
3292.000000 -1280.362612 -1272.493452
3292.000000 -1279.053680 -1270.981270
3292.000000 -1277.744747 -1269.469087
3292.000000 -1276.435815 -1267.956904
3292.000000 -1275.126883 -1266.444722
3292.000000 -1273.817950 -1264.932539
3292.000000 -1272.509018 -1263.420356
3292.000000 -1271.200086 -1261.908174
3292.000000 -1269.891154 -1260.395991
3292.000000 -1268.582221 -1258.883809
3292.000000 -1267.273289 -1257.371626
3292.000000 -1265.964357 -1255.859443
3292.000000 -1264.655425 -1254.347261
3292.000000 -1263.346492 -1252.835078
3292.000000 -1262.037560 -1251.322895
3292.000000 -1260.728628 -1249.810713
3292.000000 -1259.419695 -1248.298530
3292.000000 -1258.110763 -1246.786348
3292.000000 -1256.801831 -1245.274165
3292.000000 -1255.492899 -1243.761982
3292.000000 -1254.183966 -1242.249800
3292.000000 -1252.875034 -1240.737617
3292.000000 -1251.566102 -1239.225434
3292.000000 -1250.257170 -1237.713252
3292.000000 -1248.948237 -1236.201069
3292.000000 -1247.639305 -1234.688886
3292.000000 -1246.330373 -1233.176704
3292.000000 -1245.021440 -1231.664521
3292.000000 -1243.712508 -1230.152339
3292.000000 -1242.403576 -1228.640156
3292.000000 -1241.094644 -1227.127973
3292.000000 -1239.785711 -1225.615791
3292.000000 -1238.476779 -1224.103608
3292.000000 -1237.167847 -1222.591425
3292.000000 -1235.858914 -1221.079243
3292.000000 -1234.549982 -1219.567060
3292.000000 -1233.241050 -1218.054878
3292.000000 -1231.932118 -1216.542695
3292.000000 -1230.623185 -1215.030512
3292.000000 -1229.314253 -1213.518330
3292.000000 -1228.005321 -1212.006147
3292.000000 -1226.696389 -1210.493964
3292.000000 -1225.387456 -1208.981782
3292.000000 -1224.078524 -1207.469599
3292.000000 -1222.769592 -1205.957417
3292.000000 -1221.460659 -1204.445234
3292.000000 -1220.151727 -1202.933051
3292.000000 -1218.842795 -1201.420869
3292.000000 -1217.533863 -1199.908686
3292.000000 -1216.224930 -1198.396503
3292.000000 -1214.915998 -1196.884321
3292.000000 -1213.607066 -1195.372138
3292.000000 -1212.298134 -1193.859956
3292.000000 -1210.989201 -1192.347773
3292.000000 -1209.680269 -1190.835590
3292.000000 -1208.371337 -1189.323408
3292.000000 -1207.062404 -1187.811225
3292.000000 -1205.753472 -1186.299042
3292.000000 -1204.444540 -1184.786860
3292.000000 -1203.135608 -1183.274677
3292.000000 -1201.826675 -1181.762494
3292.000000 -1200.517743 -1180.250312
3292.000000 -1199.208811 -1178.738129
3292.000000 -1197.899879 -1177.225947
3292.000000 -1196.590946 -1175.713764
3292.000000 -1195.282014 -1174.201581
3292.000000 -1193.973082 -1172.689399
3292.000000 -1192.664149 -1171.177216
3292.000000 -1191.355217 -1169.665033
3292.000000 -1190.046285 -1168.152851
3292.000000 -1188.737353 -1166.640668
3292.000000 -1187.428420 -1165.128486
3292.000000 -1186.119488 -1163.616303
3292.000000 -1184.810556 -1162.104120
3292.000000 -1183.501624 -1160.591938
3292.000000 -1182.192691 -1159.079755
3292.000000 -1180.883759 -1157.567572
3292.000000 -1179.574827 -1156.055390
3292.000000 -1178.265894 -1154.543207
3292.000000 -1176.956962 -1153.031025
3292.000000 -1175.648030 -1151.518842
3292.000000 -1174.339098 -1150.006659
3292.000000 -1173.030165 -1148.494477
3292.000000 -1171.721233 -1146.982294
3292.000000 -1170.412301 -1145.470111
3292.000000 -1169.103368 -1143.957929
3292.000000 -1167.794436 -1142.445746
3292.000000 -1166.485504 -1140.933564
3292.000000 -1165.176572 -1139.421381
3292.000000 -1163.867639 -1137.909198
3292.000000 -1162.558707 -1136.397016
3292.000000 -1161.249775 -1134.884833
3292.000000 -1159.940843 -1133.372650
3292.000000 -1158.631910 -1131.860468
3292.000000 -1157.322978 -1130.348285
3292.000000 -1156.014046 -1128.836103
3292.000000 -1154.705113 -1127.323920
3292.000000 -1153.396181 -1125.811737
3292.000000 -1152.087249 -1124.299555
3292.000000 -1150.778317 -1122.787372
3292.000000 -1149.469384 -1121.275189
3292.000000 -1148.160452 -1119.763007
3292.000000 -1146.851520 -1118.250824
3292.000000 -1145.542588 -1116.738641
3292.000000 -1144.233655 -1115.226459
3292.000000 -1142.924723 -1113.714276
3292.000000 -1141.615791 -1112.202094
3292.000000 -1140.306858 -1110.689911
3292.000000 -1138.997926 -1109.177728
3292.000000 -1137.688994 -1107.665546
3292.000000 -1136.380062 -1106.153363
3292.000000 -1135.071129 -1104.641180
3292.000000 -1133.762197 -1103.128998
3292.000000 -1132.453265 -1101.616815
3292.000000 -1131.144333 -1100.104633
3292.000000 -1129.835400 -1098.592450
3292.000000 -1128.526468 -1097.080267
3292.000000 -1127.217536 -1095.568085
3292.000000 -1125.908603 -1094.055902
3292.000000 -1124.599671 -1092.543719
3292.000000 -1123.290739 -1091.031537
3292.000000 -1121.981807 -1089.519354
3292.000000 -1120.672874 -1088.007172
3292.000000 -1119.363942 -1086.494989
3292.000000 -1118.055010 -1084.982806
3292.000000 -1116.746077 -1083.470624
3292.000000 -1115.437145 -1081.958441
3292.000000 -1114.128213 -1080.446258
3292.000000 -1112.819281 -1078.934076
3292.000000 -1111.510348 -1077.421893
3292.000000 -1110.201416 -1075.909711
3292.000000 -1108.892484 -1074.397528
3292.000000 -1107.583552 -1072.885345
3292.000000 -1106.274619 -1071.373163
3292.000000 -1104.965687 -1069.860980
3292.000000 -1103.656755 -1068.348797
3292.000000 -1102.347822 -1066.836615
3292.000000 -1101.038890 -1065.324432
3292.000000 -1099.729958 -1063.812250
3292.000000 -1098.421026 -1062.300067
3292.000000 -1097.112093 -1060.787884
3292.000000 -1095.803161 -1059.275702
3292.000000 -1094.494229 -1057.763519
3292.000000 -1093.185297 -1056.251336
3292.000000 -1091.876364 -1054.739154
3292.000000 -1090.567432 -1053.226971
3292.000000 -1089.258500 -1051.714788
3292.000000 -1087.949567 -1050.202606
3292.000000 -1086.640635 -1048.690423
3292.000000 -1085.331703 -1047.178241
3292.000000 -1084.022771 -1045.666058
3292.000000 -1082.713838 -1044.153875
3292.000000 -1081.404906 -1042.641693
3292.000000 -1080.095974 -1041.129510
3292.000000 -1078.787042 -1039.617327
3292.000000 -1077.478109 -1038.105145
3292.000000 -1076.169177 -1036.592962
3292.000000 -1074.860245 -1035.080780
3292.000000 -1073.551312 -1033.568597
3292.000000 -1072.242380 -1032.056414
3292.000000 -1070.933448 -1030.544232
3292.000000 -1069.624516 -1029.032049
3292.000000 -1068.315583 -1027.519866
3292.000000 -1067.006651 -1026.007684
3292.000000 -1065.697719 -1024.495501
3292.000000 -1064.388787 -1022.983319
3292.000000 -1063.079854 -1021.471136
3292.000000 -1061.770922 -1019.958953
3292.000000 -1060.461990 -1018.446771
3292.000000 -1059.153057 -1016.934588
3292.000000 -1057.844125 -1015.422405
3292.000000 -1056.535193 -1013.910223
3292.000000 -1055.226261 -1012.398040
3292.000000 -1053.917328 -1010.885858
3292.000000 -1052.608396 -1009.373675
3292.000000 -1051.299464 -1007.861492
3292.000000 -1049.990531 -1006.349310
3292.000000 -1048.681599 -1004.837127
3292.000000 -1047.372667 -1003.324944
3292.000000 -1046.063735 -1001.812762
3292.000000 -1044.754802 -1000.300579
3292.000000 -1043.445870 -998.788397
3292.000000 -1042.136938 -997.276214
3292.000000 -1040.828006 -995.764031
3292.000000 -1039.519073 -994.251849
3292.000000 -1038.210141 -992.739666
3292.000000 -1036.901209 -991.227483
3292.000000 -1035.592276 -989.715301
3292.000000 -1034.283344 -988.203118
3292.000000 -1032.974412 -986.690935
3292.000000 -1031.665480 -985.178753
3292.000000 -1030.356547 -983.666570
3292.000000 -1029.047615 -982.154388
3292.000000 -1027.738683 -980.642205
3292.000000 -1026.429751 -979.130022
3292.000000 -1025.120818 -977.617840
3292.000000 -1023.811886 -976.105657
3292.000000 -1022.502954 -974.593474
3292.000000 -1021.194021 -973.081292
3292.000000 -1019.885089 -971.569109
3292.000000 -1018.576157 -970.056927
3292.000000 -1017.267225 -968.544744
3292.000000 -1015.958292 -967.032561
3292.000000 -1014.649360 -965.520379
3292.000000 -1013.340428 -964.008196
3292.000000 -1012.031496 -962.496013
3292.000000 -1010.722563 -960.983831
3292.000000 -1009.413631 -959.471648
3292.000000 -1008.104699 -957.959466
3292.000000 -1006.795766 -956.447283
3292.000000 -1005.486834 -954.935100
3292.000000 -1004.177902 -953.422918
3292.000000 -1002.868970 -951.910735
3292.000000 -1001.560037 -950.398552
3292.000000 -1000.251105 -948.886370
3292.000000 -998.942173 -947.374187
3292.000000 -997.633240 -945.862005
3292.000000 -996.324308 -944.349822
3292.000000 -995.015376 -942.837639
3292.000000 -993.706444 -941.325457
3292.000000 -992.397511 -939.813274
3292.000000 -991.088579 -938.301091
3292.000000 -989.779647 -936.788909
3292.000000 -988.470715 -935.276726
3292.000000 -987.161782 -933.764544
3292.000000 -985.852850 -932.252361
3292.000000 -984.543918 -930.740178
3292.000000 -983.234985 -929.227996
3292.000000 -981.926053 -927.715813
3292.000000 -980.617121 -926.203630
3292.000000 -979.308189 -924.691448
3292.000000 -977.999256 -923.179265
3292.000000 -976.690324 -921.667082
3292.000000 -975.381392 -920.154900
3292.000000 -974.072460 -918.642717
3292.000000 -972.763527 -917.130535
3292.000000 -971.454595 -915.618352
3292.000000 -970.145663 -914.106169
3292.000000 -968.836730 -912.593987
3292.000000 -967.527798 -911.081804
3292.000000 -966.218866 -909.569621
3292.000000 -964.909934 -908.057439
3292.000000 -963.601001 -906.545256
3292.000000 -962.292069 -905.033074
3292.000000 -960.983137 -903.520891
3292.000000 -959.674205 -902.008708
3292.000000 -958.365272 -900.496526
3292.000000 -957.056340 -898.984343
3292.000000 -955.747408 -897.472160
3292.000000 -954.438475 -895.959978
3292.000000 -953.129543 -894.447795
3292.000000 -951.820611 -892.935613
3292.000000 -950.511679 -891.423430
3292.000000 -949.202746 -889.911247
3292.000000 -947.893814 -888.399065
3292.000000 -946.584882 -886.886882
3292.000000 -945.275950 -885.374699
3292.000000 -943.967017 -883.862517
3292.000000 -942.658085 -882.350334
3292.000000 -941.349153 -880.838152
3292.000000 -940.040220 -879.325969
3292.000000 -938.731288 -877.813786
3292.000000 -937.422356 -876.301604
3292.000000 -936.113424 -874.789421
3292.000000 -934.804491 -873.277238
3292.000000 -933.495559 -871.765056
3292.000000 -932.186627 -870.252873
3292.000000 -930.877694 -868.740691
3292.000000 -929.568762 -867.228508
3292.000000 -928.259830 -865.716325
3292.000000 -926.950898 -864.204143
3292.000000 -925.641965 -862.691960
3292.000000 -924.333033 -861.179777
3292.000000 -923.024101 -859.667595
3292.000000 -921.715169 -858.155412
3292.000000 -920.406236 -856.643229
3292.000000 -919.097304 -855.131047
3292.000000 -917.788372 -853.618864
3292.000000 -916.479439 -852.106682
3292.000000 -915.170507 -850.594499
3292.000000 -913.861575 -849.082316
3292.000000 -912.552643 -847.570134
3292.000000 -911.243710 -846.057951
3292.000000 -909.934778 -844.545768
3292.000000 -908.625846 -843.033586
3292.000000 -907.316914 -841.521403
3292.000000 -2992.000000 -1956.000000
3292.000000 -2992.000000 -1956.000000
3292.000000 -2990.000000 -1956.000000
3292.000000 -2988.000000 -1956.000000
3292.000000 -2986.000000 -1956.000000
3292.000000 -2984.000000 -1956.000000
3292.000000 -2982.000000 -1956.000000
3292.000000 -2980.000000 -1956.000000
3292.000000 -2978.000000 -1956.000000
3292.000000 -2976.000000 -1956.000000
3292.000000 -2974.000000 -1956.000000
3292.000000 -2972.000000 -1956.000000
3292.000000 -2970.000000 -1956.000000
3292.000000 -2968.000000 -1956.000000
3292.000000 -2966.000000 -1956.000000
3292.000000 -2964.000000 -1956.000000
3292.000000 -2962.000000 -1956.000000
3292.000000 -2960.000000 -1956.000000
3292.000000 -2958.000000 -1956.000000
3292.000000 -2956.000000 -1956.000000
3292.000000 -2954.000000 -1956.000000
3292.000000 -2952.000000 -1956.000000
3292.000000 -2950.000000 -1956.000000
3292.000000 -2948.000000 -1956.000000
3292.000000 -2946.000000 -1956.000000
3292.000000 -2944.000000 -1956.000000
3292.000000 -2942.000000 -1956.000000
3292.000000 -2940.000000 -1956.000000
3292.000000 -2938.000000 -1956.000000
3292.000000 -2936.000000 -1956.000000
3292.000000 -2934.000000 -1956.000000
3292.000000 -2932.000000 -1956.000000
3292.000000 -2930.000000 -1956.000000
3292.000000 -2928.000000 -1956.000000
3292.000000 -2926.000000 -1956.000000
3292.000000 -2924.000000 -1956.000000
3292.000000 -2922.000000 -1956.000000
3292.000000 -2920.000000 -1956.000000
3292.000000 -2918.000000 -1956.000000
3292.000000 -2916.000000 -1956.000000
3292.000000 -2914.000000 -1956.000000
3292.000000 -2912.000000 -1956.000000
3292.000000 -2910.000000 -1956.000000
3292.000000 -2908.000000 -1956.000000
3292.000000 -2906.000000 -1956.000000
3292.000000 -2904.000000 -1956.000000
3292.000000 -2902.000000 -1956.000000
3292.000000 -2900.000000 -1956.000000
3292.000000 -2898.000000 -1956.000000
3292.000000 -2896.000000 -1956.000000
3292.000000 -2894.000000 -1956.000000
3292.000000 -2892.000000 -1956.000000
3292.000000 -2890.000000 -1956.000000
3292.000000 -2888.000000 -1956.000000
3292.000000 -2886.000000 -1956.000000
3292.000000 -2884.000000 -1956.000000
3292.000000 -2882.000000 -1956.000000
3292.000000 -2880.000000 -1956.000000
3292.000000 -2878.000000 -1956.000000
3292.000000 -2876.000000 -1956.000000
3292.000000 -2874.000000 -1956.000000
3292.000000 -2872.000000 -1956.000000
3292.000000 -2870.000000 -1956.000000
3292.000000 -2868.000000 -1956.000000
3292.000000 -2866.000000 -1956.000000
3292.000000 -2864.000000 -1956.000000
3292.000000 -2862.000000 -1956.000000
3292.000000 -2860.000000 -1956.000000
3292.000000 -2858.000000 -1956.000000
3292.000000 -2856.000000 -1956.000000
3292.000000 -2854.000000 -1956.000000
3292.000000 -2852.000000 -1956.000000
3292.000000 -2850.000000 -1956.000000
3292.000000 -2848.000000 -1956.000000
3292.000000 -2846.000000 -1956.000000
3292.000000 -2844.000000 -1956.000000
3292.000000 -2842.000000 -1956.000000
3292.000000 -2840.000000 -1956.000000
3292.000000 -2838.000000 -1956.000000
3292.000000 -2836.000000 -1956.000000
3292.000000 -2834.000000 -1956.000000
3292.000000 -2832.000000 -1956.000000
3292.000000 -2830.000000 -1956.000000
3292.000000 -2828.000000 -1956.000000
3292.000000 -2826.000000 -1956.000000
3292.000000 -2824.000000 -1956.000000
3292.000000 -2822.000000 -1956.000000
3292.000000 -2820.000000 -1956.000000
3292.000000 -2818.000000 -1956.000000
3292.000000 -2816.000000 -1956.000000
3292.000000 -2814.000000 -1956.000000
3292.000000 -2812.000000 -1956.000000
3292.000000 -2810.000000 -1956.000000
3292.000000 -2808.000000 -1956.000000
3292.000000 -2806.000000 -1956.000000
3292.000000 -2804.000000 -1956.000000
3292.000000 -2802.000000 -1956.000000
3292.000000 -2800.000000 -1956.000000
3292.000000 -2798.000000 -1956.000000
3292.000000 -2796.000000 -1956.000000
3292.000000 -2794.000000 -1956.000000
3292.000000 -2792.000000 -1956.000000
3292.000000 -2790.000000 -1956.000000
3292.000000 -2788.000000 -1956.000000
3292.000000 -2786.000000 -1956.000000
3292.000000 -2784.000000 -1956.000000
3292.000000 -2782.000000 -1956.000000
3292.000000 -2780.000000 -1956.000000
3292.000000 -2778.000000 -1956.000000
3292.000000 -2776.000000 -1956.000000
3292.000000 -2774.000000 -1956.000000
3292.000000 -2772.000000 -1956.000000
3292.000000 -2770.000000 -1956.000000
3292.000000 -2768.000000 -1956.000000
3292.000000 -2766.000000 -1956.000000
3292.000000 -2764.000000 -1956.000000
3292.000000 -2762.000000 -1956.000000
3292.000000 -2760.000000 -1956.000000
3292.000000 -2758.000000 -1956.000000
3292.000000 -2756.000000 -1956.000000
3292.000000 -2754.000000 -1956.000000
3292.000000 -2752.000000 -1956.000000
3292.000000 -2750.000000 -1956.000000
3292.000000 -2748.000000 -1956.000000
3292.000000 -2746.000000 -1956.000000
3292.000000 -2744.000000 -1956.000000
3292.000000 -2742.000000 -1956.000000
3292.000000 -2740.000000 -1956.000000
3292.000000 -2738.000000 -1956.000000
3292.000000 -2736.000000 -1956.000000
3292.000000 -2734.000000 -1956.000000
3292.000000 -2732.000000 -1956.000000
3292.000000 -2730.000000 -1956.000000
3292.000000 -2728.000000 -1956.000000
3292.000000 -2726.000000 -1956.000000
3292.000000 -2724.000000 -1956.000000
3292.000000 -2722.000000 -1956.000000
3292.000000 -2720.000000 -1956.000000
3292.000000 -2718.000000 -1956.000000
3292.000000 -2716.000000 -1956.000000
3292.000000 -2714.000000 -1956.000000
3292.000000 -2712.000000 -1956.000000
3292.000000 -2710.000000 -1956.000000
3292.000000 -2708.000000 -1956.000000
3292.000000 -2706.000000 -1956.000000
3292.000000 -2704.000000 -1956.000000
3292.000000 -2702.000000 -1956.000000
3292.000000 -2700.000000 -1956.000000
3292.000000 -2698.000000 -1956.000000
3292.000000 -2696.000000 -1956.000000
3292.000000 -2694.000000 -1956.000000
3292.000000 -2692.000000 -1956.000000
3292.000000 -2690.000000 -1956.000000
3292.000000 -2688.000000 -1956.000000
3292.000000 -2686.000000 -1956.000000
3292.000000 -2684.000000 -1956.000000
3292.000000 -2682.000000 -1956.000000
3292.000000 -2680.000000 -1956.000000
3292.000000 -2678.000000 -1956.000000
3292.000000 -2676.000000 -1956.000000
3292.000000 -2674.000000 -1956.000000
3292.000000 -2672.000000 -1956.000000
3292.000000 -2670.000000 -1956.000000
3292.000000 -2668.000000 -1956.000000
3292.000000 -2666.000000 -1956.000000
3292.000000 -2664.000000 -1956.000000
3292.000000 -2662.000000 -1956.000000
3292.000000 -2660.000000 -1956.000000
3292.000000 -2658.000000 -1956.000000
3292.000000 -2656.000000 -1956.000000
3292.000000 -2654.000000 -1956.000000
3292.000000 -2652.000000 -1956.000000
3292.000000 -2650.000000 -1956.000000
3292.000000 -2648.000000 -1956.000000
3292.000000 -2646.000000 -1956.000000
3292.000000 -2644.000000 -1956.000000
3292.000000 -2642.000000 -1956.000000
3292.000000 -2640.000000 -1956.000000
3292.000000 -2638.000000 -1956.000000
3292.000000 -2636.000000 -1956.000000
3292.000000 -2634.000000 -1956.000000
3292.000000 -2632.000000 -1956.000000
3292.000000 -2630.000000 -1956.000000
3292.000000 -2628.000000 -1956.000000
3292.000000 -2626.000000 -1956.000000
3292.000000 -2624.000000 -1956.000000
3292.000000 -2622.000000 -1956.000000
3292.000000 -2620.000000 -1956.000000
3292.000000 -2618.000000 -1956.000000
3292.000000 -2616.000000 -1956.000000
3292.000000 -2614.000000 -1956.000000
3292.000000 -2612.000000 -1956.000000
3292.000000 -2610.000000 -1956.000000
3292.000000 -2608.000000 -1956.000000
3292.000000 -2606.000000 -1956.000000
3292.000000 -2604.000000 -1956.000000
3292.000000 -2602.000000 -1956.000000
3292.000000 -2600.000000 -1956.000000
3292.000000 -2598.000000 -1956.000000
3292.000000 -2596.000000 -1956.000000
3292.000000 -2594.000000 -1956.000000
3292.000000 -2592.000000 -1956.000000
3292.000000 -2590.000000 -1956.000000
3292.000000 -2588.000000 -1956.000000
3292.000000 -2586.000000 -1956.000000
3292.000000 -2584.000000 -1956.000000
3292.000000 -2582.000000 -1956.000000
3292.000000 -2580.000000 -1956.000000
3292.000000 -2578.000000 -1956.000000
3292.000000 -2576.000000 -1956.000000
3292.000000 -2574.000000 -1956.000000
3292.000000 -2572.000000 -1956.000000
3292.000000 -2570.000000 -1956.000000
3292.000000 -2568.000000 -1956.000000
3292.000000 -2566.000000 -1956.000000
3292.000000 -2564.000000 -1956.000000
3292.000000 -2562.000000 -1956.000000
3292.000000 -2560.000000 -1956.000000
3292.000000 -2558.000000 -1956.000000
3292.000000 -2556.000000 -1956.000000
3292.000000 -2554.000000 -1956.000000
3292.000000 -2552.000000 -1956.000000
3292.000000 -2550.000000 -1956.000000
3292.000000 -2548.000000 -1956.000000
3292.000000 -2546.000000 -1956.000000
3292.000000 -2544.000000 -1956.000000
3292.000000 -2542.000000 -1956.000000
3292.000000 -2540.000000 -1956.000000
3292.000000 -2538.000000 -1956.000000
3292.000000 -2536.000000 -1956.000000
3292.000000 -2534.000000 -1956.000000
3292.000000 -2532.000000 -1956.000000
3292.000000 -2530.000000 -1956.000000
3292.000000 -2528.000000 -1956.000000
3292.000000 -2526.000000 -1956.000000
3292.000000 -2524.000000 -1956.000000
3292.000000 -2522.000000 -1956.000000
3292.000000 -2520.000000 -1956.000000
3292.000000 -2518.000000 -1956.000000
3292.000000 -2516.000000 -1956.000000
3292.000000 -2514.000000 -1956.000000
3292.000000 -2512.000000 -1956.000000
3292.000000 -2510.000000 -1956.000000
3292.000000 -2508.000000 -1956.000000
3292.000000 -2506.000000 -1956.000000
3292.000000 -2504.000000 -1956.000000
3292.000000 -2502.000000 -1956.000000
3292.000000 -2500.000000 -1956.000000
3292.000000 -2498.000000 -1956.000000
3292.000000 -2496.000000 -1956.000000
3292.000000 -2494.000000 -1956.000000
3292.000000 -2492.000000 -1956.000000
3292.000000 -2490.000000 -1956.000000
3292.000000 -2488.000000 -1956.000000
3292.000000 -2486.000000 -1956.000000
3292.000000 -2484.000000 -1956.000000
3292.000000 -2482.000000 -1956.000000
3292.000000 -2480.000000 -1956.000000
3292.000000 -2478.000000 -1956.000000
3292.000000 -2476.000000 -1956.000000
3292.000000 -2474.000000 -1956.000000
3292.000000 -2472.000000 -1956.000000
3292.000000 -2470.000000 -1956.000000
3292.000000 -2468.000000 -1956.000000
3292.000000 -2466.000000 -1956.000000
3292.000000 -2464.000000 -1956.000000
3292.000000 -2462.000000 -1956.000000
3292.000000 -2460.000000 -1956.000000
3292.000000 -2458.000000 -1956.000000
3292.000000 -2456.000000 -1956.000000
3292.000000 -2454.000000 -1956.000000
3292.000000 -2452.000000 -1956.000000
3292.000000 -2450.000000 -1956.000000
3292.000000 -2448.000000 -1956.000000
3292.000000 -2446.000000 -1956.000000
3292.000000 -2444.000000 -1956.000000
3292.000000 -2442.000000 -1956.000000
3292.000000 -2440.000000 -1956.000000
3292.000000 -2438.000000 -1956.000000
3292.000000 -2436.000000 -1956.000000
3292.000000 -2434.000000 -1956.000000
3292.000000 -2432.000000 -1956.000000
3292.000000 -2430.000000 -1956.000000
3292.000000 -2428.000000 -1956.000000
3292.000000 -2426.000000 -1956.000000
3292.000000 -2424.000000 -1956.000000
3292.000000 -2422.000000 -1956.000000
3292.000000 -2420.000000 -1956.000000
3292.000000 -2418.000000 -1956.000000
3292.000000 -2416.000000 -1956.000000
3292.000000 -2414.000000 -1956.000000
3292.000000 -2412.000000 -1956.000000
3292.000000 -2410.000000 -1956.000000
3292.000000 -2408.000000 -1956.000000
3292.000000 -2406.000000 -1956.000000
3292.000000 -2404.000000 -1956.000000
3292.000000 -2402.000000 -1956.000000
3292.000000 -2400.000000 -1956.000000
3292.000000 -2398.000000 -1956.000000
3292.000000 -2396.000000 -1956.000000
3292.000000 -2394.000000 -1956.000000
3292.000000 -2392.000000 -1956.000000
3292.000000 -2390.000000 -1956.000000
3292.000000 -2388.000000 -1956.000000
3292.000000 -2386.000000 -1956.000000
3292.000000 -2384.000000 -1956.000000
3292.000000 -2382.000000 -1956.000000
3292.000000 -2380.000000 -1956.000000
3292.000000 -2378.000000 -1956.000000
3292.000000 -2376.000000 -1956.000000
3292.000000 -2374.000000 -1956.000000
3292.000000 -2372.000000 -1956.000000
3292.000000 -2370.000000 -1956.000000
3292.000000 -2368.000000 -1956.000000
3292.000000 -2366.000000 -1956.000000
3292.000000 -2364.000000 -1956.000000
3292.000000 -2362.000000 -1956.000000
3292.000000 -2360.000000 -1956.000000
3292.000000 -2358.000000 -1956.000000
3292.000000 -2356.000000 -1956.000000
3292.000000 -2354.000000 -1956.000000
3292.000000 -2352.000000 -1956.000000
3292.000000 -2350.000000 -1956.000000
3292.000000 -2348.000000 -1956.000000
3292.000000 -2346.000000 -1956.000000
3292.000000 -2344.000000 -1956.000000
3292.000000 -2342.000000 -1956.000000
3292.000000 -2340.000000 -1956.000000
3292.000000 -2338.000000 -1956.000000
3292.000000 -2336.000000 -1956.000000
3292.000000 -2334.000000 -1956.000000
3292.000000 -2332.000000 -1956.000000
3292.000000 -2330.000000 -1956.000000
3292.000000 -2328.000000 -1956.000000
3292.000000 -2326.000000 -1956.000000
3292.000000 -2324.000000 -1956.000000
3292.000000 -2322.000000 -1956.000000
3292.000000 -2320.000000 -1956.000000
3292.000000 -2318.000000 -1956.000000
3292.000000 -2316.000000 -1956.000000
3292.000000 -2314.000000 -1956.000000
3292.000000 -2312.000000 -1956.000000
3292.000000 -2310.000000 -1956.000000
3292.000000 -2308.000000 -1956.000000
3292.000000 -2306.000000 -1956.000000
3292.000000 -2304.000000 -1956.000000
3292.000000 -2302.000000 -1956.000000
3292.000000 -2300.000000 -1956.000000
3292.000000 -2298.000000 -1956.000000
3292.000000 -2296.000000 -1956.000000
3292.000000 -2294.000000 -1956.000000
3292.000000 -2292.000000 -1956.000000
3292.000000 -2290.000000 -1956.000000
3292.000000 -2288.000000 -1956.000000
3292.000000 -2286.000000 -1956.000000
3292.000000 -2284.000000 -1956.000000
3292.000000 -2282.000000 -1956.000000
3292.000000 -2280.000000 -1956.000000
3292.000000 -2278.000000 -1956.000000
3292.000000 -2276.000000 -1956.000000
3292.000000 -2274.000000 -1956.000000
3292.000000 -2272.000000 -1956.000000
3292.000000 -2270.000000 -1956.000000
3292.000000 -2268.000000 -1956.000000
3292.000000 -2266.000000 -1956.000000
3292.000000 -2264.000000 -1956.000000
3292.000000 -2262.000000 -1956.000000
3292.000000 -2260.000000 -1956.000000
3292.000000 -2258.000000 -1956.000000
3292.000000 -2256.000000 -1956.000000
3292.000000 -2254.000000 -1956.000000
3292.000000 -2252.000000 -1956.000000
3292.000000 -2250.000000 -1956.000000
3292.000000 -2248.000000 -1956.000000
3292.000000 -2246.000000 -1956.000000
3292.000000 -2244.000000 -1956.000000
3292.000000 -2242.000000 -1956.000000
3292.000000 -2240.000000 -1956.000000
3292.000000 -2238.000000 -1956.000000
3292.000000 -2236.000000 -1956.000000
3292.000000 -2234.000000 -1956.000000
3292.000000 -2232.000000 -1956.000000
3292.000000 -2230.000000 -1956.000000
3292.000000 -2228.000000 -1956.000000
3292.000000 -2226.000000 -1956.000000
3292.000000 -2224.000000 -1956.000000
3292.000000 -2222.000000 -1956.000000
3292.000000 -2220.000000 -1956.000000
3292.000000 -2218.000000 -1956.000000
3292.000000 -2216.000000 -1956.000000
3292.000000 -2214.000000 -1956.000000
3292.000000 -2212.000000 -1956.000000
3292.000000 -2210.000000 -1956.000000
3292.000000 -2208.000000 -1956.000000
3292.000000 -2206.000000 -1956.000000
3292.000000 -2204.000000 -1956.000000
3292.000000 -2202.000000 -1956.000000
3292.000000 -2200.000000 -1956.000000
3292.000000 -2198.000000 -1956.000000
3292.000000 -2196.000000 -1956.000000
3292.000000 -2194.000000 -1956.000000
3292.000000 -2192.000000 -1956.000000
3292.000000 -2190.000000 -1956.000000
3292.000000 -2188.000000 -1956.000000
3292.000000 -2186.000000 -1956.000000
3292.000000 -2184.000000 -1956.000000
3292.000000 -2182.000000 -1956.000000
3292.000000 -2180.000000 -1956.000000
3292.000000 -2178.000000 -1956.000000
3292.000000 -2176.000000 -1956.000000
3292.000000 -2174.000000 -1956.000000
3292.000000 -2172.000000 -1956.000000
3292.000000 -2170.000000 -1956.000000
3292.000000 -2168.000000 -1956.000000
3292.000000 -2166.000000 -1956.000000
3292.000000 -2164.000000 -1956.000000
3292.000000 -2162.000000 -1956.000000
3292.000000 -2160.000000 -1956.000000
3292.000000 -2158.000000 -1956.000000
3292.000000 -2156.000000 -1956.000000
3292.000000 -2154.000000 -1956.000000
3292.000000 -2152.000000 -1956.000000
3292.000000 -2150.000000 -1956.000000
3292.000000 -2148.000000 -1956.000000
3292.000000 -2146.000000 -1956.000000
3292.000000 -2144.000000 -1956.000000
3292.000000 -2142.000000 -1956.000000
3292.000000 -2140.000000 -1956.000000
3292.000000 -2138.000000 -1956.000000
3292.000000 -2136.000000 -1956.000000
3292.000000 -2134.000000 -1956.000000
3292.000000 -2132.000000 -1956.000000
3292.000000 -2130.000000 -1956.000000
3292.000000 -2128.000000 -1956.000000
3292.000000 -2126.000000 -1956.000000
3292.000000 -2124.000000 -1956.000000
3292.000000 -2122.000000 -1956.000000
3292.000000 -2120.000000 -1956.000000
3292.000000 -2118.000000 -1956.000000
3292.000000 -2116.000000 -1956.000000
3292.000000 -2114.000000 -1956.000000
3292.000000 -2112.000000 -1956.000000
3292.000000 -2110.000000 -1956.000000
3292.000000 -2108.000000 -1956.000000
3292.000000 -2106.000000 -1956.000000
3292.000000 -2104.000000 -1956.000000
3292.000000 -2102.000000 -1956.000000
3292.000000 -2100.000000 -1956.000000
3292.000000 -2098.000000 -1956.000000
3292.000000 -2096.000000 -1956.000000
3292.000000 -2094.000000 -1956.000000
3292.000000 -2092.000000 -1956.000000
3292.000000 -2090.000000 -1956.000000
3292.000000 -2088.000000 -1956.000000
3292.000000 -2086.000000 -1956.000000
3292.000000 -2084.000000 -1956.000000
3292.000000 -2082.000000 -1956.000000
3292.000000 -2080.000000 -1956.000000
3292.000000 -2078.000000 -1956.000000
3292.000000 -2076.000000 -1956.000000
3292.000000 -2074.000000 -1956.000000
3292.000000 -2072.000000 -1956.000000
3292.000000 -2070.000000 -1956.000000
3292.000000 -2068.000000 -1956.000000
3292.000000 -2066.000000 -1956.000000
3292.000000 -2064.000000 -1956.000000
3292.000000 -2062.000000 -1956.000000
3292.000000 -2060.000000 -1956.000000
3292.000000 -2058.000000 -1956.000000
3292.000000 -2056.000000 -1956.000000
3292.000000 -2054.000000 -1956.000000
3292.000000 -2052.000000 -1956.000000
3292.000000 -2050.000000 -1956.000000
3292.000000 -2048.000000 -1956.000000
3292.000000 -2046.000000 -1956.000000
3292.000000 -2044.000000 -1956.000000
3292.000000 -2042.000000 -1956.000000
3292.000000 -2040.000000 -1956.000000
3292.000000 -2038.000000 -1956.000000
3292.000000 -2036.000000 -1956.000000
3292.000000 -2034.000000 -1956.000000
3292.000000 -2032.000000 -1956.000000
3292.000000 -2030.000000 -1956.000000
3292.000000 -2028.000000 -1956.000000
3292.000000 -2026.000000 -1956.000000
3292.000000 -2024.000000 -1956.000000
3292.000000 -2022.000000 -1956.000000
3292.000000 -2020.000000 -1956.000000
3292.000000 -2018.000000 -1956.000000
3292.000000 -2016.000000 -1956.000000
3292.000000 -2014.000000 -1956.000000
3292.000000 -2012.000000 -1956.000000
3292.000000 -2010.000000 -1956.000000
3292.000000 -2008.000000 -1956.000000
3292.000000 -2006.000000 -1956.000000
3292.000000 -2004.000000 -1956.000000
3292.000000 -2002.000000 -1956.000000
3292.000000 -2000.000000 -1956.000000
3292.000000 -1998.000000 -1956.000000
3292.000000 -1996.000000 -1956.000000
3292.000000 -1994.000000 -1956.000000
3292.000000 -1992.000000 -1956.000000
3292.000000 -1990.000000 -1956.000000
3292.000000 -1988.000000 -1956.000000
3292.000000 -1986.000000 -1956.000000
3292.000000 -1984.000000 -1956.000000
3292.000000 -1982.000000 -1956.000000
3292.000000 -1980.000000 -1956.000000
3292.000000 -1978.000000 -1956.000000
3292.000000 -1976.000000 -1956.000000
3292.000000 -1974.000000 -1956.000000
3292.000000 -1972.000000 -1956.000000
3292.000000 -1970.000000 -1956.000000
3292.000000 -1968.000000 -1956.000000
3292.000000 -1966.000000 -1956.000000
3292.000000 -1964.000000 -1956.000000
3292.000000 -1962.000000 -1956.000000
3292.000000 -1960.000000 -1956.000000
3292.000000 -1958.000000 -1956.000000
3292.000000 -1956.000000 -1956.000000
3292.000000 -1954.000000 -1956.000000
3292.000000 -1952.000000 -1956.000000
3292.000000 -1950.000000 -1956.000000
3292.000000 -1948.000000 -1956.000000
3292.000000 -1946.000000 -1956.000000
3292.000000 -1944.000000 -1956.000000
3292.000000 -1942.000000 -1956.000000
3292.000000 -1940.000000 -1956.000000
3292.000000 -1938.000000 -1956.000000
3292.000000 -1936.000000 -1956.000000
3292.000000 -1934.000000 -1956.000000
3292.000000 -1932.000000 -1956.000000
3292.000000 -1930.000000 -1956.000000
3292.000000 -1928.000000 -1956.000000
3292.000000 -1926.000000 -1956.000000
3292.000000 -1924.000000 -1956.000000
3292.000000 -1922.000000 -1956.000000
3292.000000 -1920.000000 -1956.000000
3292.000000 -1918.000000 -1956.000000
3292.000000 -1916.000000 -1956.000000
3292.000000 -1914.000000 -1956.000000
3292.000000 -1912.000000 -1956.000000
3292.000000 -1910.000000 -1956.000000
3292.000000 -1908.000000 -1956.000000
3292.000000 -1906.000000 -1956.000000
3292.000000 -1904.000000 -1956.000000
3292.000000 -1902.000000 -1956.000000
3292.000000 -1900.000000 -1956.000000
3292.000000 -1898.000000 -1956.000000
3292.000000 -1896.000000 -1956.000000
3292.000000 -1894.000000 -1956.000000
3292.000000 -1892.000000 -1956.000000
3292.000000 -1890.000000 -1956.000000
3292.000000 -1888.000000 -1956.000000
3292.000000 -1886.000000 -1956.000000
3292.000000 -1884.000000 -1956.000000
3292.000000 -1882.000000 -1956.000000
3292.000000 -1880.000000 -1956.000000
3292.000000 -1878.000000 -1956.000000
3292.000000 -1876.000000 -1956.000000
2832.000000 -3012.000000 -1956.000000
2832.000000 -3012.000000 -1956.000000
2833.998112 -3011.913126 -1956.000000
2835.996225 -3011.826251 -1956.000000
2837.994337 -3011.739377 -1956.000000
2839.992449 -3011.652502 -1956.000000
2841.990562 -3011.565628 -1956.000000
2843.988674 -3011.478753 -1956.000000
2845.986786 -3011.391879 -1956.000000
2847.984899 -3011.305004 -1956.000000
2849.983011 -3011.218130 -1956.000000
2851.981123 -3011.131256 -1956.000000
2853.979235 -3011.044381 -1956.000000
2855.977348 -3010.957507 -1956.000000
2857.975460 -3010.870632 -1956.000000
2859.973572 -3010.783758 -1956.000000
2861.971685 -3010.696883 -1956.000000
2863.969797 -3010.610009 -1956.000000
2865.967909 -3010.523134 -1956.000000
2867.966022 -3010.436260 -1956.000000
2869.964134 -3010.349385 -1956.000000
2871.962246 -3010.262511 -1956.000000
2873.960359 -3010.175637 -1956.000000
2875.958471 -3010.088762 -1956.000000
2877.956583 -3010.001888 -1956.000000
2879.954696 -3009.915013 -1956.000000
2881.952808 -3009.828139 -1956.000000
2883.950920 -3009.741264 -1956.000000
2885.949033 -3009.654390 -1956.000000
2887.947145 -3009.567515 -1956.000000
