-162.690543 -677.574145 121.477616
-162.203960 -679.459654 121.933787
-161.717377 -681.345163 122.389959
-161.230794 -683.230672 122.846130
-160.744211 -685.116181 123.302302
-224.000000 -720.000000 -112.000000
-224.000000 -720.000000 -112.000000
-224.000000 -718.306727 -110.935657
-224.000000 -716.613454 -109.871314
-224.000000 -714.920181 -108.806971
-224.000000 -713.226908 -107.742628
-224.000000 -711.533635 -106.678285
-224.000000 -709.840361 -105.613941
-224.000000 -708.147088 -104.549598
-224.000000 -706.453815 -103.485255
-224.000000 -704.760542 -102.420912
-224.000000 -703.067269 -101.356569
-224.000000 -701.373996 -100.292226
-224.000000 -699.680723 -99.227883
-224.000000 -697.987450 -98.163540
-224.000000 -696.294177 -97.099197
-224.000000 -694.600904 -96.034854
-224.000000 -692.907630 -94.970511
-224.000000 -691.214357 -93.906167
-224.000000 -689.521084 -92.841824
-224.000000 -687.827811 -91.777481
-224.000000 -686.134538 -90.713138
-224.000000 -684.441265 -89.648795
-224.000000 -682.747992 -88.584452
-224.000000 -681.054719 -87.520109
-224.000000 -679.361446 -86.455766
-224.000000 -677.668173 -85.391423
-224.000000 -675.974899 -84.327080
-224.000000 -674.281626 -83.262737
-224.000000 -672.588353 -82.198393
-224.000000 -670.895080 -81.134050
-224.000000 -669.201807 -80.069707
-224.000000 -667.508534 -79.005364
-224.000000 -665.815261 -77.941021
-224.000000 -664.121988 -76.876678
-224.000000 -662.428715 -75.812335
-224.000000 -660.735442 -74.747992
-224.000000 -659.042168 -73.683649
-224.000000 -657.348895 -72.619306
-224.000000 -655.655622 -71.554963
-224.000000 -653.962349 -70.490619
-224.000000 -652.269076 -69.426276
-224.000000 -650.575803 -68.361933
-224.000000 -648.882530 -67.297590
-224.000000 -647.189257 -66.233247
-224.000000 -645.495984 -65.168904
-224.000000 -643.802711 -64.104561
-224.000000 -642.109437 -63.040218
-224.000000 -640.416164 -61.975875
-224.000000 -638.722891 -60.911532
-224.000000 -637.029618 -59.847189
-224.000000 -635.336345 -58.782845
-224.000000 -633.643072 -57.718502
-224.000000 -631.949799 -56.654159
-224.000000 -630.256526 -55.589816
-224.000000 -628.563253 -54.525473
-224.000000 -626.869980 -53.461130
-224.000000 -625.176706 -52.396787
-224.000000 -623.483433 -51.332444
-224.000000 -621.790160 -50.268101
-224.000000 -620.096887 -49.203758
-224.000000 -618.403614 -48.139415
-224.000000 -616.710341 -47.075071
-224.000000 -615.017068 -46.010728
-224.000000 -613.323795 -44.946385
-224.000000 -611.630522 -43.882042
-224.000000 -609.937249 -42.817699
-224.000000 -608.243976 -41.753356
-224.000000 -606.550702 -40.689013
-224.000000 -604.857429 -39.624670
-224.000000 -603.164156 -38.560327
-224.000000 -601.470883 -37.495984
-224.000000 -599.777610 -36.431641
-224.000000 -598.084337 -35.367297
-224.000000 -596.391064 -34.302954
-224.000000 -594.697791 -33.238611
-224.000000 -593.004518 -32.174268
-224.000000 -591.311245 -31.109925
-224.000000 -589.617971 -30.045582
-224.000000 -587.924698 -28.981239
-224.000000 -586.231425 -27.916896
-224.000000 -584.538152 -26.852553
-224.000000 -582.844879 -25.788210
-224.000000 -581.151606 -24.723867
-224.000000 -579.458333 -23.659523
-224.000000 -577.765060 -22.595180
-224.000000 -576.071787 -21.530837
-224.000000 -574.378514 -20.466494
-224.000000 -572.685240 -19.402151
-224.000000 -570.991967 -18.337808
-224.000000 -569.298694 -17.273465
-224.000000 -567.605421 -16.209122
-224.000000 -565.912148 -15.144779
-224.000000 -564.218875 -14.080436
-224.000000 -562.525602 -13.016093
-224.000000 -560.832329 -11.951749
-224.000000 -559.139056 -10.887406
-224.000000 -557.445783 -9.823063
-224.000000 -555.752509 -8.758720
-224.000000 -554.059236 -7.694377
-224.000000 -552.365963 -6.630034
-224.000000 -550.672690 -5.565691
-224.000000 -548.979417 -4.501348
-224.000000 -547.286144 -3.437005
-224.000000 -545.592871 -2.372662
-224.000000 -543.899598 -1.308319
-224.000000 -542.206325 -0.243976
-224.000000 -540.513052 0.820368
-224.000000 -538.819778 1.884711
-224.000000 -537.126505 2.949054
-224.000000 -535.433232 4.013397
-224.000000 -533.739959 5.077740
-224.000000 -532.046686 6.142083
-224.000000 -530.353413 7.206426
-224.000000 -528.660140 8.270769
-224.000000 -526.966867 9.335112
-224.000000 -525.273594 10.399455
-224.000000 -523.580321 11.463798
-224.000000 -521.887047 12.528142
-224.000000 -520.193774 13.592485
-224.000000 -518.500501 14.656828
-224.000000 -516.807228 15.721171
-224.000000 -515.113955 16.785514
-224.000000 -513.420682 17.849857
-224.000000 -511.727409 18.914200
-224.000000 -510.034136 19.978543
-224.000000 -508.340863 21.042886
-224.000000 -506.647590 22.107229
-224.000000 -504.954317 23.171572
-224.000000 -503.261043 24.235916
-224.000000 -501.567770 25.300259
-224.000000 -499.874497 26.364602
-224.000000 -498.181224 27.428945
-224.000000 -496.487951 28.493288
-224.000000 -494.794678 29.557631
-224.000000 -493.101405 30.621974
-224.000000 -491.408132 31.686317
-224.000000 -489.714859 32.750660
-224.000000 -488.021586 33.815003
-224.000000 -486.328312 34.879346
-224.000000 -484.635039 35.943690
-224.000000 -482.941766 37.008033
-224.000000 -481.248493 38.072376
-224.000000 -479.555220 39.136719
-224.000000 -477.861947 40.201062
-224.000000 -476.168674 41.265405
-224.000000 -474.475401 42.329748
-224.000000 -472.782128 43.394091
-224.000000 -471.088855 44.458434
-224.000000 -469.395581 45.522777
-224.000000 -467.702308 46.587120
-224.000000 -466.009035 47.651464
-224.000000 -464.315762 48.715807
-224.000000 -462.622489 49.780150
-224.000000 -460.929216 50.844493
-224.000000 -459.235943 51.908836
-224.000000 -457.542670 52.973179
-224.000000 -455.849397 54.037522
-224.000000 -454.156124 55.101865
-224.000000 -452.462850 56.166208
-224.000000 -450.769577 57.230551
-224.000000 -449.076304 58.294894
-224.000000 -447.383031 59.359238
-224.000000 -445.689758 60.423581
-224.000000 -443.996485 61.487924
-224.000000 -442.303212 62.552267
-248.000000 -736.000000 -64.000000
-248.000000 -736.000000 -64.000000
-247.142857 -735.428571 -65.714286
-246.285714 -734.857143 -67.428571
-245.428571 -734.285714 -69.142857
-244.571429 -733.714286 -70.857143
-243.714286 -733.142857 -72.571429
-242.857143 -732.571429 -74.285714
-242.000000 -732.000000 -76.000000
-241.142857 -731.428571 -77.714286
-240.285714 -730.857143 -79.428571
-239.428571 -730.285714 -81.142857
-238.571429 -729.714286 -82.857143
-237.714286 -729.142857 -84.571429
-236.857143 -728.571429 -86.285714
-236.000000 -728.000000 -88.000000
-235.142857 -727.428571 -89.714286
-234.285714 -726.857143 -91.428571
-233.428571 -726.285714 -93.142857
-232.571429 -725.714286 -94.857143
-231.714286 -725.142857 -96.571429
-230.857143 -724.571429 -98.285714
-230.000000 -724.000000 -100.000000
-229.142857 -723.428571 -101.714286
-228.285714 -722.857143 -103.428571
-227.428571 -722.285714 -105.142857
-226.571429 -721.714286 -106.857143
-225.714286 -721.142857 -108.571429
-72.000000 -768.000000 160.000000
-72.000000 -768.000000 160.000000
-73.227920 -767.776742 158.437192
-74.455841 -767.553484 156.874385
-75.683761 -767.330225 155.311577
-76.911681 -767.106967 153.748770
-78.139601 -766.883709 152.185962
-79.367522 -766.660451 150.623154
-80.595442 -766.437192 149.060347
-81.823362 -766.213934 147.497539
-83.051282 -765.990676 145.934732
-84.279203 -765.767418 144.371924
-85.507123 -765.544159 142.809116
-86.735043 -765.320901 141.246309
-87.962963 -765.097643 139.683501
-89.190884 -764.874385 138.120694
-90.418804 -764.651127 136.557886
-91.646724 -764.427868 134.995078
-92.874644 -764.204610 133.432271
-94.102565 -763.981352 131.869463
-95.330485 -763.758094 130.306656
-96.558405 -763.534835 128.743848
-97.786325 -763.311577 127.181040
-99.014246 -763.088319 125.618233
-100.242166 -762.865061 124.055425
-101.470086 -762.641803 122.492618
-102.698006 -762.418544 120.929810
-103.925927 -762.195286 119.367002
-105.153847 -761.972028 117.804195
-106.381767 -761.748770 116.241387
-107.609688 -761.525511 114.678580
-108.837608 -761.302253 113.115772
-110.065528 -761.078995 111.552964
-111.293448 -760.855737 109.990157
-112.521369 -760.632478 108.427349
-113.749289 -760.409220 106.864542
-114.977209 -760.185962 105.301734
-116.205129 -759.962704 103.738926
-117.433050 -759.739446 102.176119
-118.660970 -759.516187 100.613311
-119.888890 -759.292929 99.050504
-121.116810 -759.069671 97.487696
-122.344731 -758.846413 95.924888
-123.572651 -758.623154 94.362081
-124.800571 -758.399896 92.799273
-126.028491 -758.176638 91.236466
-127.256412 -757.953380 89.673658
-128.484332 -757.730121 88.110850
-129.712252 -757.506863 86.548043
-130.940172 -757.283605 84.985235
-132.168093 -757.060347 83.422427
-133.396013 -756.837089 81.859620
-134.623933 -756.613830 80.296812
-135.851853 -756.390572 78.734005
-137.079774 -756.167314 77.171197
-138.307694 -755.944056 75.608389
-139.535614 -755.720797 74.045582
-140.763534 -755.497539 72.482774
-141.991455 -755.274281 70.919967
-143.219375 -755.051023 69.357159
-144.447295 -754.827764 67.794351
-145.675216 -754.604506 66.231544
-146.903136 -754.381248 64.668736
-148.131056 -754.157990 63.105929
-149.358976 -753.934732 61.543121
-150.586897 -753.711473 59.980313
-151.814817 -753.488215 58.417506
-153.042737 -753.264957 56.854698
-154.270657 -753.041699 55.291891
-155.498578 -752.818440 53.729083
-156.726498 -752.595182 52.166275
-157.954418 -752.371924 50.603468
-159.182338 -752.148666 49.040660
-160.410259 -751.925408 47.477853
-161.638179 -751.702149 45.915045
-162.866099 -751.478891 44.352237
-164.094019 -751.255633 42.789430
-165.321940 -751.032375 41.226622
-166.549860 -750.809116 39.663815
-167.777780 -750.585858 38.101007
-169.005700 -750.362600 36.538199
-170.233621 -750.139342 34.975392
-171.461541 -749.916083 33.412584
-172.689461 -749.692825 31.849777
-173.917381 -749.469567 30.286969
-175.145302 -749.246309 28.724161
-176.373222 -749.023051 27.161354
-177.601142 -748.799792 25.598546
-178.829063 -748.576534 24.035739
-180.056983 -748.353276 22.472931
-181.284903 -748.130018 20.910123
-182.512823 -747.906759 19.347316
-183.740744 -747.683501 17.784508
-184.968664 -747.460243 16.221701
-186.196584 -747.236985 14.658893
-187.424504 -747.013726 13.096085
-188.652425 -746.790468 11.533278
-189.880345 -746.567210 9.970470
-191.108265 -746.343952 8.407663
-192.336185 -746.120694 6.844855
-193.564106 -745.897435 5.282047
-194.792026 -745.674177 3.719240
-196.019946 -745.450919 2.156432
-197.247866 -745.227661 0.593625
-198.475787 -745.004402 -0.969183
-199.703707 -744.781144 -2.531991
-200.931627 -744.557886 -4.094798
-202.159547 -744.334628 -5.657606
-203.387468 -744.111370 -7.220413
-204.615388 -743.888111 -8.783221
-205.843308 -743.664853 -10.346029
-207.071228 -743.441595 -11.908836
-208.299149 -743.218337 -13.471644
-209.527069 -742.995078 -15.034451
-210.754989 -742.771820 -16.597259
-211.982910 -742.548562 -18.160067
-213.210830 -742.325304 -19.722874
-214.438750 -742.102045 -21.285682
-215.666670 -741.878787 -22.848489
-216.894591 -741.655529 -24.411297
-218.122511 -741.432271 -25.974105
-219.350431 -741.209013 -27.536912
-220.578351 -740.985754 -29.099720
-221.806272 -740.762496 -30.662527
-223.034192 -740.539238 -32.225335
-224.262112 -740.315980 -33.788143
-225.490032 -740.092721 -35.350950
-226.717953 -739.869463 -36.913758
-227.945873 -739.646205 -38.476565
-229.173793 -739.422947 -40.039373
-230.401713 -739.199688 -41.602181
-231.629634 -738.976430 -43.164988
-232.857554 -738.753172 -44.727796
-234.085474 -738.529914 -46.290603
-235.313394 -738.306656 -47.853411
-236.541315 -738.083397 -49.416219
-237.769235 -737.860139 -50.979026
-238.997155 -737.636881 -52.541834
-240.225075 -737.413623 -54.104641
-241.452996 -737.190364 -55.667449
-242.680916 -736.967106 -57.230257
-243.908836 -736.743848 -58.793064
-245.136756 -736.520590 -60.355872
-246.364677 -736.297331 -61.918680
-72.000000 -832.000000 172.000000
-72.000000 -832.000000 172.000000
-72.000000 -830.034256 171.631423
-72.000000 -828.068511 171.262846
-72.000000 -826.102767 170.894269
-72.000000 -824.137023 170.525692
-72.000000 -822.171278 170.157115
-72.000000 -820.205534 169.788538
-72.000000 -818.239789 169.419961
-72.000000 -816.274045 169.051383
-72.000000 -814.308301 168.682806
-72.000000 -812.342556 168.314229
-72.000000 -810.376812 167.945652
-72.000000 -808.411068 167.577075
-72.000000 -806.445323 167.208498
-72.000000 -804.479579 166.839921
-72.000000 -802.513834 166.471344
-72.000000 -800.548090 166.102767
-72.000000 -798.582346 165.734190
-72.000000 -796.616601 165.365613
-72.000000 -794.650857 164.997036
-72.000000 -792.685113 164.628459
-72.000000 -790.719368 164.259882
-72.000000 -788.753624 163.891304
-72.000000 -786.787879 163.522727
-72.000000 -784.822135 163.154150
-72.000000 -782.856391 162.785573
-72.000000 -780.890646 162.416996
-72.000000 -778.924902 162.048419
-72.000000 -776.959158 161.679842
-72.000000 -774.993413 161.311265
-72.000000 -773.027669 160.942688
-72.000000 -771.061924 160.574111
-460.000000 -832.000000 -80.000000
-460.000000 -832.000000 -80.000000
-458.322718 -832.000000 -78.910631
-456.645436 -832.000000 -77.821262
-454.968153 -832.000000 -76.731893
-453.290871 -832.000000 -75.642525
-451.613589 -832.000000 -74.553156
-449.936307 -832.000000 -73.463787
-448.259025 -832.000000 -72.374418
-446.581743 -832.000000 -71.285049
-444.904460 -832.000000 -70.195680
-443.227178 -832.000000 -69.106312
-441.549896 -832.000000 -68.016943
-439.872614 -832.000000 -66.927574
-438.195332 -832.000000 -65.838205
-436.518049 -832.000000 -64.748836
-434.840767 -832.000000 -63.659467
-433.163485 -832.000000 -62.570099
-431.486203 -832.000000 -61.480730
-429.808921 -832.000000 -60.391361
-428.131638 -832.000000 -59.301992
-426.454356 -832.000000 -58.212623
-424.777074 -832.000000 -57.123254
-423.099792 -832.000000 -56.033885
-421.422510 -832.000000 -54.944517
-419.745228 -832.000000 -53.855148
-418.067945 -832.000000 -52.765779
-416.390663 -832.000000 -51.676410
-414.713381 -832.000000 -50.587041
-413.036099 -832.000000 -49.497672
-411.358817 -832.000000 -48.408304
-409.681534 -832.000000 -47.318935
-408.004252 -832.000000 -46.229566
-406.326970 -832.000000 -45.140197
-404.649688 -832.000000 -44.050828
-402.972406 -832.000000 -42.961459
-401.295124 -832.000000 -41.872091
-399.617841 -832.000000 -40.782722
-397.940559 -832.000000 -39.693353
-396.263277 -832.000000 -38.603984
-394.585995 -832.000000 -37.514615
-392.908713 -832.000000 -36.425246
-391.231430 -832.000000 -35.335877
-389.554148 -832.000000 -34.246509
-387.876866 -832.000000 -33.157140
-386.199584 -832.000000 -32.067771
-384.522302 -832.000000 -30.978402
-382.845020 -832.000000 -29.889033
-381.167737 -832.000000 -28.799664
-379.490455 -832.000000 -27.710296
-377.813173 -832.000000 -26.620927
-376.135891 -832.000000 -25.531558
-374.458609 -832.000000 -24.442189
-372.781326 -832.000000 -23.352820
-371.104044 -832.000000 -22.263451
-369.426762 -832.000000 -21.174083
-367.749480 -832.000000 -20.084714
-366.072198 -832.000000 -18.995345
-364.394915 -832.000000 -17.905976
-362.717633 -832.000000 -16.816607
-361.040351 -832.000000 -15.727238
-359.363069 -832.000000 -14.637870
-357.685787 -832.000000 -13.548501
-356.008505 -832.000000 -12.459132
-354.331222 -832.000000 -11.369763
-352.653940 -832.000000 -10.280394
-350.976658 -832.000000 -9.191025
-349.299376 -832.000000 -8.101656
-347.622094 -832.000000 -7.012288
-345.944811 -832.000000 -5.922919
-344.267529 -832.000000 -4.833550
-342.590247 -832.000000 -3.744181
-340.912965 -832.000000 -2.654812
-339.235683 -832.000000 -1.565443
-337.558401 -832.000000 -0.476075
-335.881118 -832.000000 0.613294
-334.203836 -832.000000 1.702663
-332.526554 -832.000000 2.792032
-330.849272 -832.000000 3.881401
-329.171990 -832.000000 4.970770
-327.494707 -832.000000 6.060138
-325.817425 -832.000000 7.149507
-324.140143 -832.000000 8.238876
-322.462861 -832.000000 9.328245
-320.785579 -832.000000 10.417614
-319.108296 -832.000000 11.506983
-317.431014 -832.000000 12.596352
-315.753732 -832.000000 13.685720
-314.076450 -832.000000 14.775089
-312.399168 -832.000000 15.864458
-310.721886 -832.000000 16.953827
-309.044603 -832.000000 18.043196
-307.367321 -832.000000 19.132565
-305.690039 -832.000000 20.221933
-304.012757 -832.000000 21.311302
-302.335475 -832.000000 22.400671
-300.658192 -832.000000 23.490040
-298.980910 -832.000000 24.579409
-297.303628 -832.000000 25.668778
-295.626346 -832.000000 26.758146
-293.949064 -832.000000 27.847515
-292.271782 -832.000000 28.936884
-290.594499 -832.000000 30.026253
-288.917217 -832.000000 31.115622
-287.239935 -832.000000 32.204991
-285.562653 -832.000000 33.294360
-283.885371 -832.000000 34.383728
-282.208088 -832.000000 35.473097
-280.530806 -832.000000 36.562466
-278.853524 -832.000000 37.651835
-277.176242 -832.000000 38.741204
-275.498960 -832.000000 39.830573
-273.821678 -832.000000 40.919941
-272.144395 -832.000000 42.009310
-270.467113 -832.000000 43.098679
-268.789831 -832.000000 44.188048
-267.112549 -832.000000 45.277417
-265.435267 -832.000000 46.366786
-263.757984 -832.000000 47.456154
-262.080702 -832.000000 48.545523
-260.403420 -832.000000 49.634892
-258.726138 -832.000000 50.724261
-257.048856 -832.000000 51.813630
-255.371573 -832.000000 52.902999
-253.694291 -832.000000 53.992368
-252.017009 -832.000000 55.081736
-250.339727 -832.000000 56.171105
-248.662445 -832.000000 57.260474
-246.985163 -832.000000 58.349843
-245.307880 -832.000000 59.439212
-243.630598 -832.000000 60.528581
-241.953316 -832.000000 61.617949
-240.276034 -832.000000 62.707318
-238.598752 -832.000000 63.796687
-236.921469 -832.000000 64.886056
-235.244187 -832.000000 65.975425
-233.566905 -832.000000 67.064794
-231.889623 -832.000000 68.154162
-230.212341 -832.000000 69.243531
-228.535059 -832.000000 70.332900
-226.857776 -832.000000 71.422269
-225.180494 -832.000000 72.511638
-223.503212 -832.000000 73.601007
-221.825930 -832.000000 74.690376
-220.148648 -832.000000 75.779744
-218.471365 -832.000000 76.869113
-216.794083 -832.000000 77.958482
-215.116801 -832.000000 79.047851
-213.439519 -832.000000 80.137220
-211.762237 -832.000000 81.226589
-210.084954 -832.000000 82.315957
-208.407672 -832.000000 83.405326
-206.730390 -832.000000 84.494695
-205.053108 -832.000000 85.584064
-203.375826 -832.000000 86.673433
-201.698544 -832.000000 87.762802
-200.021261 -832.000000 88.852170
-198.343979 -832.000000 89.941539
-196.666697 -832.000000 91.030908
-194.989415 -832.000000 92.120277
-193.312133 -832.000000 93.209646
-191.634850 -832.000000 94.299015
-189.957568 -832.000000 95.388383
-188.280286 -832.000000 96.477752
-186.603004 -832.000000 97.567121
-184.925722 -832.000000 98.656490
-183.248440 -832.000000 99.745859
-181.571157 -832.000000 100.835228
-179.893875 -832.000000 101.924597
-178.216593 -832.000000 103.013965
-176.539311 -832.000000 104.103334
-174.862029 -832.000000 105.192703
-173.184746 -832.000000 106.282072
-171.507464 -832.000000 107.371441
-169.830182 -832.000000 108.460810
-168.152900 -832.000000 109.550178
-166.475618 -832.000000 110.639547
-164.798335 -832.000000 111.728916
-163.121053 -832.000000 112.818285
-161.443771 -832.000000 113.907654
-159.766489 -832.000000 114.997023
-158.089207 -832.000000 116.086391
-156.411925 -832.000000 117.175760
-154.734642 -832.000000 118.265129
-153.057360 -832.000000 119.354498
-151.380078 -832.000000 120.443867
-149.702796 -832.000000 121.533236
-148.025514 -832.000000 122.622605
-146.348231 -832.000000 123.711973
-144.670949 -832.000000 124.801342
-142.993667 -832.000000 125.890711
-141.316385 -832.000000 126.980080
-139.639103 -832.000000 128.069449
-137.961821 -832.000000 129.158818
-136.284538 -832.000000 130.248186
-134.607256 -832.000000 131.337555
-132.929974 -832.000000 132.426924
-131.252692 -832.000000 133.516293
-129.575410 -832.000000 134.605662
-127.898127 -832.000000 135.695031
-126.220845 -832.000000 136.784399
-124.543563 -832.000000 137.873768
-122.866281 -832.000000 138.963137
-121.188999 -832.000000 140.052506
-119.511717 -832.000000 141.141875
-117.834434 -832.000000 142.231244
-116.157152 -832.000000 143.320613
-114.479870 -832.000000 144.409981
-112.802588 -832.000000 145.499350
-111.125306 -832.000000 146.588719
-109.448023 -832.000000 147.678088
-107.770741 -832.000000 148.767457
-106.093459 -832.000000 149.856826
-104.416177 -832.000000 150.946194
-102.738895 -832.000000 152.035563
-101.061612 -832.000000 153.124932
-99.384330 -832.000000 154.214301
-97.707048 -832.000000 155.303670
-96.029766 -832.000000 156.393039
-94.352484 -832.000000 157.482407
-92.675202 -832.000000 158.571776
-90.997919 -832.000000 159.661145
-89.320637 -832.000000 160.750514
-87.643355 -832.000000 161.839883
-85.966073 -832.000000 162.929252
-84.288791 -832.000000 164.018621
-82.611508 -832.000000 165.107989
-80.934226 -832.000000 166.197358
-79.256944 -832.000000 167.286727
-77.579662 -832.000000 168.376096
-75.902380 -832.000000 169.465465
-74.225098 -832.000000 170.554834
-448.000000 -352.000000 172.000000
-448.000000 -352.000000 172.000000
-448.044259 -353.770362 171.070560
-448.088518 -355.540724 170.141120
-448.132777 -357.311086 169.211680
-448.177036 -359.081449 168.282239
-448.221295 -360.851811 167.352799
-448.265554 -362.622173 166.423359
-448.309813 -364.392535 165.493919
-448.354072 -366.162897 164.564479
-448.398331 -367.933259 163.635039
-448.442591 -369.703622 162.705599
-448.486850 -371.473984 161.776159
-448.531109 -373.244346 160.846718
-448.575368 -375.014708 159.917278
-448.619627 -376.785070 158.987838
-448.663886 -378.555432 158.058398
-448.708145 -380.325795 157.128958
-448.752404 -382.096157 156.199518
-448.796663 -383.866519 155.270078
-448.840922 -385.636881 154.340637
-448.885181 -387.407243 153.411197
-448.929440 -389.177605 152.481757
-448.973699 -390.947967 151.552317
-449.017958 -392.718330 150.622877
-449.062217 -394.488692 149.693437
-449.106476 -396.259054 148.763997
-449.150735 -398.029416 147.834557
-449.194994 -399.799778 146.905116
-449.239254 -401.570140 145.975676
-449.283513 -403.340503 145.046236
-449.327772 -405.110865 144.116796
-449.372031 -406.881227 143.187356
-449.416290 -408.651589 142.257916
-449.460549 -410.421951 141.328476
-449.504808 -412.192313 140.399035
-449.549067 -413.962676 139.469595
-449.593326 -415.733038 138.540155
-449.637585 -417.503400 137.610715
-449.681844 -419.273762 136.681275
-449.726103 -421.044124 135.751835
-449.770362 -422.814486 134.822395
-449.814621 -424.584849 133.892955
-449.858880 -426.355211 132.963514
-449.903139 -428.125573 132.034074
-449.947398 -429.895935 131.104634
-449.991657 -431.666297 130.175194
-450.035916 -433.436659 129.245754
-450.080176 -435.207021 128.316314
-450.124435 -436.977384 127.386874
-450.168694 -438.747746 126.457433
-450.212953 -440.518108 125.527993
-450.257212 -442.288470 124.598553
-450.301471 -444.058832 123.669113
-450.345730 -445.829194 122.739673
-450.389989 -447.599557 121.810233
-450.434248 -449.369919 120.880793
-450.478507 -451.140281 119.951353
-450.522766 -452.910643 119.021912
-450.567025 -454.681005 118.092472
-450.611284 -456.451367 117.163032
-450.655543 -458.221730 116.233592
-450.699802 -459.992092 115.304152
-450.744061 -461.762454 114.374712
-450.788320 -463.532816 113.445272
-450.832579 -465.303178 112.515831
-450.876839 -467.073540 111.586391
-450.921098 -468.843902 110.656951
-450.965357 -470.614265 109.727511
-451.009616 -472.384627 108.798071
-451.053875 -474.154989 107.868631
-451.098134 -475.925351 106.939191
-451.142393 -477.695713 106.009751
-451.186652 -479.466075 105.080310
-451.230911 -481.236438 104.150870
-451.275170 -483.006800 103.221430
-451.319429 -484.777162 102.291990
-451.363688 -486.547524 101.362550
-451.407947 -488.317886 100.433110
-451.452206 -490.088248 99.503670
-451.496465 -491.858611 98.574229
-451.540724 -493.628973 97.644789
-451.584983 -495.399335 96.715349
-451.629242 -497.169697 95.785909
-451.673501 -498.940059 94.856469
-451.717761 -500.710421 93.927029
-451.762020 -502.480784 92.997589
-451.806279 -504.251146 92.068149
-451.850538 -506.021508 91.138708
-451.894797 -507.791870 90.209268
-451.939056 -509.562232 89.279828
-451.983315 -511.332594 88.350388
-452.027574 -513.102956 87.420948
-452.071833 -514.873319 86.491508
-452.116092 -516.643681 85.562068
-452.160351 -518.414043 84.632627
-452.204610 -520.184405 83.703187
-452.248869 -521.954767 82.773747
-452.293128 -523.725129 81.844307
-452.337387 -525.495492 80.914867
-452.381646 -527.265854 79.985427
-452.425905 -529.036216 79.055987
-452.470164 -530.806578 78.126547
-452.514424 -532.576940 77.197106
-452.558683 -534.347302 76.267666
-452.602942 -536.117665 75.338226
-452.647201 -537.888027 74.408786
-452.691460 -539.658389 73.479346
-452.735719 -541.428751 72.549906
-452.779978 -543.199113 71.620466
-452.824237 -544.969475 70.691025
-452.868496 -546.739837 69.761585
-452.912755 -548.510200 68.832145
-452.957014 -550.280562 67.902705
-453.001273 -552.050924 66.973265
-453.045532 -553.821286 66.043825
-453.089791 -555.591648 65.114385
-453.134050 -557.362010 64.184945
-453.178309 -559.132373 63.255504
-453.222568 -560.902735 62.326064
-453.266827 -562.673097 61.396624
-453.311086 -564.443459 60.467184
-453.355346 -566.213821 59.537744
-453.399605 -567.984183 58.608304
-453.443864 -569.754546 57.678864
-453.488123 -571.524908 56.749423
-453.532382 -573.295270 55.819983
-453.576641 -575.065632 54.890543
-453.620900 -576.835994 53.961103
-453.665159 -578.606356 53.031663
-453.709418 -580.376719 52.102223
-453.753677 -582.147081 51.172783
-453.797936 -583.917443 50.243343
-453.842195 -585.687805 49.313902
-453.886454 -587.458167 48.384462
-453.930713 -589.228529 47.455022
-453.974972 -590.998891 46.525582
-454.019231 -592.769254 45.596142
-454.063490 -594.539616 44.666702
-454.107749 -596.309978 43.737262
-454.152009 -598.080340 42.807821
-454.196268 -599.850702 41.878381
-454.240527 -601.621064 40.948941
-454.284786 -603.391427 40.019501
-454.329045 -605.161789 39.090061
-454.373304 -606.932151 38.160621
-454.417563 -608.702513 37.231181
-454.461822 -610.472875 36.301741
-454.506081 -612.243237 35.372300
-454.550340 -614.013600 34.442860
-454.594599 -615.783962 33.513420
-454.638858 -617.554324 32.583980
-454.683117 -619.324686 31.654540
-454.727376 -621.095048 30.725100
-454.771635 -622.865410 29.795660
-454.815894 -624.635772 28.866219
-454.860153 -626.406135 27.936779
-454.904412 -628.176497 27.007339
-454.948671 -629.946859 26.077899
-454.992931 -631.717221 25.148459
-455.037190 -633.487583 24.219019
-455.081449 -635.257945 23.289579
-455.125708 -637.028308 22.360139
-455.169967 -638.798670 21.430698
-455.214226 -640.569032 20.501258
-455.258485 -642.339394 19.571818
-455.302744 -644.109756 18.642378
-455.347003 -645.880118 17.712938
-455.391262 -647.650481 16.783498
-455.435521 -649.420843 15.854058
-455.479780 -651.191205 14.924617
-455.524039 -652.961567 13.995177
-455.568298 -654.731929 13.065737
-455.612557 -656.502291 12.136297
-455.656816 -658.272654 11.206857
-455.701075 -660.043016 10.277417
-455.745334 -661.813378 9.347977
-455.789593 -663.583740 8.418537
-455.833853 -665.354102 7.489096
-455.878112 -667.124464 6.559656
-455.922371 -668.894826 5.630216
-455.966630 -670.665189 4.700776
-456.010889 -672.435551 3.771336
-456.055148 -674.205913 2.841896
-456.099407 -675.976275 1.912456
-456.143666 -677.746637 0.983015
-456.187925 -679.516999 0.053575
-456.232184 -681.287362 -0.875865
-456.276443 -683.057724 -1.805305
-456.320702 -684.828086 -2.734745
-456.364961 -686.598448 -3.664185
-456.409220 -688.368810 -4.593625
-456.453479 -690.139172 -5.523066
-456.497738 -691.909535 -6.452506
-456.541997 -693.679897 -7.381946
-456.586256 -695.450259 -8.311386
-456.630516 -697.220621 -9.240826
-456.674775 -698.990983 -10.170266
-456.719034 -700.761345 -11.099706
-456.763293 -702.531707 -12.029146
-456.807552 -704.302070 -12.958587
-456.851811 -706.072432 -13.888027
-456.896070 -707.842794 -14.817467
-456.940329 -709.613156 -15.746907
-456.984588 -711.383518 -16.676347
-457.028847 -713.153880 -17.605787
-457.073106 -714.924243 -18.535227
-457.117365 -716.694605 -19.464668
-457.161624 -718.464967 -20.394108
-457.205883 -720.235329 -21.323548
-457.250142 -722.005691 -22.252988
-457.294401 -723.776053 -23.182428
-457.338660 -725.546416 -24.111868
-457.382919 -727.316778 -25.041308
-457.427178 -729.087140 -25.970748
-457.471438 -730.857502 -26.900189
-457.515697 -732.627864 -27.829629
-457.559956 -734.398226 -28.759069
-457.604215 -736.168589 -29.688509
-457.648474 -737.938951 -30.617949
-457.692733 -739.709313 -31.547389
-457.736992 -741.479675 -32.476829
-457.781251 -743.250037 -33.406270
-457.825510 -745.020399 -34.335710
-457.869769 -746.790761 -35.265150
-457.914028 -748.561124 -36.194590
-457.958287 -750.331486 -37.124030
-458.002546 -752.101848 -38.053470
-458.046805 -753.872210 -38.982910
-458.091064 -755.642572 -39.912350
-458.135323 -757.412934 -40.841791
-458.179582 -759.183297 -41.771231
-458.223841 -760.953659 -42.700671
-458.268101 -762.724021 -43.630111
-458.312360 -764.494383 -44.559551
-458.356619 -766.264745 -45.488991
-458.400878 -768.035107 -46.418431
-458.445137 -769.805470 -47.347872
-458.489396 -771.575832 -48.277312
-458.533655 -773.346194 -49.206752
-458.577914 -775.116556 -50.136192
-458.622173 -776.886918 -51.065632
-458.666432 -778.657280 -51.995072
-458.710691 -780.427642 -52.924512
-458.754950 -782.198005 -53.853952
-458.799209 -783.968367 -54.783393
-458.843468 -785.738729 -55.712833
-458.887727 -787.509091 -56.642273
-458.931986 -789.279453 -57.571713
-458.976245 -791.049815 -58.501153
-459.020504 -792.820178 -59.430593
-459.064763 -794.590540 -60.360033
-459.109023 -796.360902 -61.289474
-459.153282 -798.131264 -62.218914
-459.197541 -799.901626 -63.148354
-459.241800 -801.671988 -64.077794
-459.286059 -803.442351 -65.007234
-459.330318 -805.212713 -65.936674
-459.374577 -806.983075 -66.866114
-459.418836 -808.753437 -67.795554
-459.463095 -810.523799 -68.724995
-459.507354 -812.294161 -69.654435
-459.551613 -814.064524 -70.583875
-459.595872 -815.834886 -71.513315
-459.640131 -817.605248 -72.442755
-459.684390 -819.375610 -73.372195
-459.728649 -821.145972 -74.301635
-459.772908 -822.916334 -75.231076
-459.817167 -824.686696 -76.160516
-459.861426 -826.457059 -77.089956
-459.905686 -828.227421 -78.019396
-459.949945 -829.997783 -78.948836
-432.000000 128.000000 172.000000
-432.000000 128.000000 172.000000
-432.066630 126.001110 172.000000
-432.133259 124.002220 172.000000
-432.199889 122.003331 172.000000
-432.266519 120.004441 172.000000
-432.333148 118.005551 172.000000
-432.399778 116.006661 172.000000
-432.466408 114.007771 172.000000
-432.533037 112.008881 172.000000
-432.599667 110.009992 172.000000
-432.666297 108.011102 172.000000
-432.732926 106.012212 172.000000
-432.799556 104.013322 172.000000
-432.866186 102.014432 172.000000
-432.932815 100.015543 172.000000
-432.999445 98.016653 172.000000
-433.066075 96.017763 172.000000
-433.132704 94.018873 172.000000
-433.199334 92.019983 172.000000
-433.265964 90.021094 172.000000
-433.332593 88.022204 172.000000
-433.399223 86.023314 172.000000
-433.465853 84.024424 172.000000
-433.532482 82.025534 172.000000
-433.599112 80.026644 172.000000
-433.665742 78.027755 172.000000
-433.732371 76.028865 172.000000
-433.799001 74.029975 172.000000
-433.865630 72.031085 172.000000
-433.932260 70.032195 172.000000
-433.998890 68.033306 172.000000
-434.065519 66.034416 172.000000
-434.132149 64.035526 172.000000
-434.198779 62.036636 172.000000
-434.265408 60.037746 172.000000
-434.332038 58.038857 172.000000
-434.398668 56.039967 172.000000
-434.465297 54.041077 172.000000
-434.531927 52.042187 172.000000
-434.598557 50.043297 172.000000
-434.665186 48.044407 172.000000
-434.731816 46.045518 172.000000
-434.798446 44.046628 172.000000
-434.865075 42.047738 172.000000
-434.931705 40.048848 172.000000
-434.998335 38.049958 172.000000
-435.064964 36.051069 172.000000
-435.131594 34.052179 172.000000
-435.198224 32.053289 172.000000
-435.264853 30.054399 172.000000
-435.331483 28.055509 172.000000
-435.398113 26.056619 172.000000
-435.464742 24.057730 172.000000
-435.531372 22.058840 172.000000
-435.598002 20.059950 172.000000
-435.664631 18.061060 172.000000
-435.731261 16.062170 172.000000
-435.797891 14.063281 172.000000
-435.864520 12.064391 172.000000
-435.931150 10.065501 172.000000
-435.997780 8.066611 172.000000
-436.064409 6.067721 172.000000
-436.131039 4.068832 172.000000
-436.197669 2.069942 172.000000
-436.264298 0.071052 172.000000
-436.330928 -1.927838 172.000000
-436.397558 -3.926728 172.000000
-436.464187 -5.925618 172.000000
-436.530817 -7.924507 172.000000
-436.597447 -9.923397 172.000000
-436.664076 -11.922287 172.000000
-436.730706 -13.921177 172.000000
-436.797336 -15.920067 172.000000
-436.863965 -17.918956 172.000000
-436.930595 -19.917846 172.000000
-436.997225 -21.916736 172.000000
-437.063854 -23.915626 172.000000
-437.130484 -25.914516 172.000000
-437.197114 -27.913405 172.000000
-437.263743 -29.912295 172.000000
-437.330373 -31.911185 172.000000
-437.397002 -33.910075 172.000000
-437.463632 -35.908965 172.000000
-437.530262 -37.907855 172.000000
-437.596891 -39.906744 172.000000
-437.663521 -41.905634 172.000000
-437.730151 -43.904524 172.000000
-437.796780 -45.903414 172.000000
-437.863410 -47.902304 172.000000
-437.930040 -49.901193 172.000000
-437.996669 -51.900083 172.000000
-438.063299 -53.898973 172.000000
-438.129929 -55.897863 172.000000
-438.196558 -57.896753 172.000000
-438.263188 -59.895643 172.000000
-438.329818 -61.894532 172.000000
-438.396447 -63.893422 172.000000
-438.463077 -65.892312 172.000000
-438.529707 -67.891202 172.000000
-438.596336 -69.890092 172.000000
-438.662966 -71.888981 172.000000
-438.729596 -73.887871 172.000000
-438.796225 -75.886761 172.000000
-438.862855 -77.885651 172.000000
-438.929485 -79.884541 172.000000
-438.996114 -81.883430 172.000000
-439.062744 -83.882320 172.000000
-439.129374 -85.881210 172.000000
-439.196003 -87.880100 172.000000
-439.262633 -89.878990 172.000000
-439.329263 -91.877880 172.000000
-439.395892 -93.876769 172.000000
-439.462522 -95.875659 172.000000
-439.529152 -97.874549 172.000000
-439.595781 -99.873439 172.000000
-439.662411 -101.872329 172.000000
-439.729041 -103.871218 172.000000
-439.795670 -105.870108 172.000000
-439.862300 -107.868998 172.000000
-439.928930 -109.867888 172.000000
-439.995559 -111.866778 172.000000
-440.062189 -113.865667 172.000000
-440.128819 -115.864557 172.000000
-440.195448 -117.863447 172.000000
-440.262078 -119.862337 172.000000
-440.328708 -121.861227 172.000000
-440.395337 -123.860117 172.000000
-440.461967 -125.859006 172.000000
-440.528597 -127.857896 172.000000
-440.595226 -129.856786 172.000000
-440.661856 -131.855676 172.000000
-440.728486 -133.854566 172.000000
-440.795115 -135.853455 172.000000
-440.861745 -137.852345 172.000000
-440.928375 -139.851235 172.000000
-440.995004 -141.850125 172.000000
-441.061634 -143.849015 172.000000
-441.128263 -145.847905 172.000000
-441.194893 -147.846794 172.000000
-441.261523 -149.845684 172.000000
-441.328152 -151.844574 172.000000
-441.394782 -153.843464 172.000000
-441.461412 -155.842354 172.000000
-441.528041 -157.841243 172.000000
-441.594671 -159.840133 172.000000
-441.661301 -161.839023 172.000000
-441.727930 -163.837913 172.000000
-441.794560 -165.836803 172.000000
-441.861190 -167.835692 172.000000
-441.927819 -169.834582 172.000000
-441.994449 -171.833472 172.000000
-442.061079 -173.832362 172.000000
-442.127708 -175.831252 172.000000
-442.194338 -177.830142 172.000000
-442.260968 -179.829031 172.000000
-442.327597 -181.827921 172.000000
-442.394227 -183.826811 172.000000
-442.460857 -185.825701 172.000000
-442.527486 -187.824591 172.000000
-442.594116 -189.823480 172.000000
-442.660746 -191.822370 172.000000
-442.727375 -193.821260 172.000000
-442.794005 -195.820150 172.000000
-442.860635 -197.819040 172.000000
-442.927264 -199.817929 172.000000
-442.993894 -201.816819 172.000000
-443.060524 -203.815709 172.000000
-443.127153 -205.814599 172.000000
-443.193783 -207.813489 172.000000
-443.260413 -209.812379 172.000000
-443.327042 -211.811268 172.000000
-443.393672 -213.810158 172.000000
-443.460302 -215.809048 172.000000
-443.526931 -217.807938 172.000000
-443.593561 -219.806828 172.000000
-443.660191 -221.805717 172.000000
-443.726820 -223.804607 172.000000
-443.793450 -225.803497 172.000000
-443.860080 -227.802387 172.000000
-443.926709 -229.801277 172.000000
-443.993339 -231.800167 172.000000
-444.059969 -233.799056 172.000000
-444.126598 -235.797946 172.000000
-444.193228 -237.796836 172.000000
-444.259858 -239.795726 172.000000
-444.326487 -241.794616 172.000000
-444.393117 -243.793505 172.000000
-444.459747 -245.792395 172.000000
-444.526376 -247.791285 172.000000
-444.593006 -249.790175 172.000000
-444.659635 -251.789065 172.000000
-444.726265 -253.787954 172.000000
-444.792895 -255.786844 172.000000
-444.859524 -257.785734 172.000000
-444.926154 -259.784624 172.000000
-444.992784 -261.783514 172.000000
-445.059413 -263.782404 172.000000
-445.126043 -265.781293 172.000000
-445.192673 -267.780183 172.000000
-445.259302 -269.779073 172.000000
-445.325932 -271.777963 172.000000
-445.392562 -273.776853 172.000000
-445.459191 -275.775742 172.000000
-445.525821 -277.774632 172.000000
-445.592451 -279.773522 172.000000
-445.659080 -281.772412 172.000000
-445.725710 -283.771302 172.000000
-445.792340 -285.770191 172.000000
-445.858969 -287.769081 172.000000
-445.925599 -289.767971 172.000000
-445.992229 -291.766861 172.000000
-446.058858 -293.765751 172.000000
-446.125488 -295.764641 172.000000
-446.192118 -297.763530 172.000000
-446.258747 -299.762420 172.000000
-446.325377 -301.761310 172.000000
-446.392007 -303.760200 172.000000
-446.458636 -305.759090 172.000000
-446.525266 -307.757979 172.000000
-446.591896 -309.756869 172.000000
-446.658525 -311.755759 172.000000
-446.725155 -313.754649 172.000000
-446.791785 -315.753539 172.000000
-446.858414 -317.752429 172.000000
-446.925044 -319.751318 172.000000
-446.991674 -321.750208 172.000000
-447.058303 -323.749098 172.000000
-447.124933 -325.747988 172.000000
-447.191563 -327.746878 172.000000
-447.258192 -329.745767 172.000000
-447.324822 -331.744657 172.000000
-447.391452 -333.743547 172.000000
-447.458081 -335.742437 172.000000
-447.524711 -337.741327 172.000000
-447.591341 -339.740216 172.000000
-447.657970 -341.739106 172.000000
-447.724600 -343.737996 172.000000
-447.791230 -345.736886 172.000000
-447.857859 -347.735776 172.000000
-447.924489 -349.734666 172.000000
-88.000000 128.000000 -332.000000
-88.000000 128.000000 -332.000000
-89.127487 128.000000 -330.348100
-90.254974 128.000000 -328.696201
-91.382461 128.000000 -327.044301
-92.509949 128.000000 -325.392401
-93.637436 128.000000 -323.740501
-94.764923 128.000000 -322.088602
-95.892410 128.000000 -320.436702
-97.019897 128.000000 -318.784802
-98.147384 128.000000 -317.132902
-99.274871 128.000000 -315.481003
-100.402358 128.000000 -313.829103
-101.529846 128.000000 -312.177203
-102.657333 128.000000 -310.525303
-103.784820 128.000000 -308.873404
-104.912307 128.000000 -307.221504
-106.039794 128.000000 -305.569604
-107.167281 128.000000 -303.917704
-108.294768 128.000000 -302.265805
-109.422255 128.000000 -300.613905
-110.549743 128.000000 -298.962005
-111.677230 128.000000 -297.310105
-112.804717 128.000000 -295.658206
-113.932204 128.000000 -294.006306
-115.059691 128.000000 -292.354406
-116.187178 128.000000 -290.702506
-117.314665 128.000000 -289.050607
-118.442152 128.000000 -287.398707
-119.569640 128.000000 -285.746807
-120.697127 128.000000 -284.094907
-121.824614 128.000000 -282.443008
-122.952101 128.000000 -280.791108
-124.079588 128.000000 -279.139208
-125.207075 128.000000 -277.487308
-126.334562 128.000000 -275.835409
-127.462050 128.000000 -274.183509
-128.589537 128.000000 -272.531609
-129.717024 128.000000 -270.879709
-130.844511 128.000000 -269.227810
-131.971998 128.000000 -267.575910
-133.099485 128.000000 -265.924010
-134.226972 128.000000 -264.272110
-135.354459 128.000000 -262.620211
-136.481947 128.000000 -260.968311
-137.609434 128.000000 -259.316411
-138.736921 128.000000 -257.664511
-139.864408 128.000000 -256.012612
-140.991895 128.000000 -254.360712
-142.119382 128.000000 -252.708812
-143.246869 128.000000 -251.056912
-144.374356 128.000000 -249.405013
-145.501844 128.000000 -247.753113
-146.629331 128.000000 -246.101213
-147.756818 128.000000 -244.449313
-148.884305 128.000000 -242.797414
-150.011792 128.000000 -241.145514
-151.139279 128.000000 -239.493614
-152.266766 128.000000 -237.841714
-153.394253 128.000000 -236.189815
-154.521741 128.000000 -234.537915
-155.649228 128.000000 -232.886015
-156.776715 128.000000 -231.234115
-157.904202 128.000000 -229.582216
-159.031689 128.000000 -227.930316
-160.159176 128.000000 -226.278416
-161.286663 128.000000 -224.626516
-162.414151 128.000000 -222.974617
-163.541638 128.000000 -221.322717
-164.669125 128.000000 -219.670817
-165.796612 128.000000 -218.018917
-166.924099 128.000000 -216.367018
-168.051586 128.000000 -214.715118
-169.179073 128.000000 -213.063218
-170.306560 128.000000 -211.411318
-171.434048 128.000000 -209.759419
-172.561535 128.000000 -208.107519
-173.689022 128.000000 -206.455619
-174.816509 128.000000 -204.803719
-175.943996 128.000000 -203.151820
-177.071483 128.000000 -201.499920
-178.198970 128.000000 -199.848020
-179.326457 128.000000 -198.196120
-180.453945 128.000000 -196.544221
-181.581432 128.000000 -194.892321
-182.708919 128.000000 -193.240421
-183.836406 128.000000 -191.588522
-184.963893 128.000000 -189.936622
-186.091380 128.000000 -188.284722
-187.218867 128.000000 -186.632822
-188.346354 128.000000 -184.980923
-189.473842 128.000000 -183.329023
-190.601329 128.000000 -181.677123
-191.728816 128.000000 -180.025223
-192.856303 128.000000 -178.373324
-193.983790 128.000000 -176.721424
-195.111277 128.000000 -175.069524
-196.238764 128.000000 -173.417624
-197.366252 128.000000 -171.765725
-198.493739 128.000000 -170.113825
-199.621226 128.000000 -168.461925
-200.748713 128.000000 -166.810025
-201.876200 128.000000 -165.158126
-203.003687 128.000000 -163.506226
-204.131174 128.000000 -161.854326
-205.258661 128.000000 -160.202426
-206.386149 128.000000 -158.550527
-207.513636 128.000000 -156.898627
-208.641123 128.000000 -155.246727
-209.768610 128.000000 -153.594827
-210.896097 128.000000 -151.942928
-212.023584 128.000000 -150.291028
-213.151071 128.000000 -148.639128
-214.278558 128.000000 -146.987228
-215.406046 128.000000 -145.335329
-216.533533 128.000000 -143.683429
-217.661020 128.000000 -142.031529
-218.788507 128.000000 -140.379629
-219.915994 128.000000 -138.727730
-221.043481 128.000000 -137.075830
-222.170968 128.000000 -135.423930
-223.298455 128.000000 -133.772030
-224.425943 128.000000 -132.120131
-225.553430 128.000000 -130.468231
-226.680917 128.000000 -128.816331
-227.808404 128.000000 -127.164431
-228.935891 128.000000 -125.512532
-230.063378 128.000000 -123.860632
-231.190865 128.000000 -122.208732
-232.318353 128.000000 -120.556832
-233.445840 128.000000 -118.904933
-234.573327 128.000000 -117.253033
-235.700814 128.000000 -115.601133
-236.828301 128.000000 -113.949233
-237.955788 128.000000 -112.297334
-239.083275 128.000000 -110.645434
-240.210762 128.000000 -108.993534
-241.338250 128.000000 -107.341634
-242.465737 128.000000 -105.689735
-243.593224 128.000000 -104.037835
-244.720711 128.000000 -102.385935
-245.848198 128.000000 -100.734035
-246.975685 128.000000 -99.082136
-248.103172 128.000000 -97.430236
-249.230659 128.000000 -95.778336
-250.358147 128.000000 -94.126436
-251.485634 128.000000 -92.474537
-252.613121 128.000000 -90.822637
-253.740608 128.000000 -89.170737
-254.868095 128.000000 -87.518837
-255.995582 128.000000 -85.866938
-257.123069 128.000000 -84.215038
-258.250556 128.000000 -82.563138
-259.378044 128.000000 -80.911238
-260.505531 128.000000 -79.259339
-261.633018 128.000000 -77.607439
-262.760505 128.000000 -75.955539
-263.887992 128.000000 -74.303639
-265.015479 128.000000 -72.651740
-266.142966 128.000000 -70.999840
-267.270453 128.000000 -69.347940
-268.397941 128.000000 -67.696040
-269.525428 128.000000 -66.044141
-270.652915 128.000000 -64.392241
-271.780402 128.000000 -62.740341
-272.907889 128.000000 -61.088441
-274.035376 128.000000 -59.436542
-275.162863 128.000000 -57.784642
-276.290351 128.000000 -56.132742
-277.417838 128.000000 -54.480843
-278.545325 128.000000 -52.828943
-279.672812 128.000000 -51.177043
-280.800299 128.000000 -49.525143
-281.927786 128.000000 -47.873244
-283.055273 128.000000 -46.221344
-284.182760 128.000000 -44.569444
-285.310248 128.000000 -42.917544
-286.437735 128.000000 -41.265645
-287.565222 128.000000 -39.613745
-288.692709 128.000000 -37.961845
-289.820196 128.000000 -36.309945
-290.947683 128.000000 -34.658046
-292.075170 128.000000 -33.006146
-293.202657 128.000000 -31.354246
-294.330145 128.000000 -29.702346
-295.457632 128.000000 -28.050447
-296.585119 128.000000 -26.398547
-297.712606 128.000000 -24.746647
-298.840093 128.000000 -23.094747
-299.967580 128.000000 -21.442848
-301.095067 128.000000 -19.790948
-302.222554 128.000000 -18.139048
-303.350042 128.000000 -16.487148
-304.477529 128.000000 -14.835249
-305.605016 128.000000 -13.183349
-306.732503 128.000000 -11.531449
-307.859990 128.000000 -9.879549
-308.987477 128.000000 -8.227650
-310.114964 128.000000 -6.575750
-311.242452 128.000000 -4.923850
-312.369939 128.000000 -3.271950
-313.497426 128.000000 -1.620051
-314.624913 128.000000 0.031849
-315.752400 128.000000 1.683749
-316.879887 128.000000 3.335649
-318.007374 128.000000 4.987548
-319.134861 128.000000 6.639448
-320.262349 128.000000 8.291348
-321.389836 128.000000 9.943248
-322.517323 128.000000 11.595147
-323.644810 128.000000 13.247047
-324.772297 128.000000 14.898947
-325.899784 128.000000 16.550847
-327.027271 128.000000 18.202746
-328.154758 128.000000 19.854646
-329.282246 128.000000 21.506546
-330.409733 128.000000 23.158446
-331.537220 128.000000 24.810345
-332.664707 128.000000 26.462245
-333.792194 128.000000 28.114145
-334.919681 128.000000 29.766045
-336.047168 128.000000 31.417944
-337.174655 128.000000 33.069844
-338.302143 128.000000 34.721744
-339.429630 128.000000 36.373644
-340.557117 128.000000 38.025543
-341.684604 128.000000 39.677443
-342.812091 128.000000 41.329343
-343.939578 128.000000 42.981243
-345.067065 128.000000 44.633142
-346.194553 128.000000 46.285042
-347.322040 128.000000 47.936942
-348.449527 128.000000 49.588842
-349.577014 128.000000 51.240741
-350.704501 128.000000 52.892641
-351.831988 128.000000 54.544541
-352.959475 128.000000 56.196441
-354.086962 128.000000 57.848340
-355.214450 128.000000 59.500240
-356.341937 128.000000 61.152140
-357.469424 128.000000 62.804040
-358.596911 128.000000 64.455939
-359.724398 128.000000 66.107839
-360.851885 128.000000 67.759739
-361.979372 128.000000 69.411639
-363.106859 128.000000 71.063538
-364.234347 128.000000 72.715438
-365.361834 128.000000 74.367338
-366.489321 128.000000 76.019238
-367.616808 128.000000 77.671137
-368.744295 128.000000 79.323037
-369.871782 128.000000 80.974937
-370.999269 128.000000 82.626836
-372.126756 128.000000 84.278736
-373.254244 128.000000 85.930636
-374.381731 128.000000 87.582536
-375.509218 128.000000 89.234435
-376.636705 128.000000 90.886335
-377.764192 128.000000 92.538235
-378.891679 128.000000 94.190135
-380.019166 128.000000 95.842034
-381.146654 128.000000 97.493934
-382.274141 128.000000 99.145834
-383.401628 128.000000 100.797734
-384.529115 128.000000 102.449633
-385.656602 128.000000 104.101533
-386.784089 128.000000 105.753433
-387.911576 128.000000 107.405333
-389.039063 128.000000 109.057232
-390.166551 128.000000 110.709132
-391.294038 128.000000 112.361032
-392.421525 128.000000 114.012932
-393.549012 128.000000 115.664831
-394.676499 128.000000 117.316731
